ply
format ascii 1.0
element vertex 693
property float x
property float y
property float z
property uchar red
property uchar green
property uchar blue
end_header
-0.12413305542833672 0.3282097577619567 4.356364123823245 255 255 255
2.032407402289594 -0.36708482252787167 4.388655172472627 255 255 255
0.9969181758337221 -0.853924360542512 4.645460377090982 255 255 255
-2.1267065965882685 -0.4532917846233908 5.2254280817304135 255 255 255
-1.6900526904406852 -1.5922521830815564 5.211252221118111 255 255 255
0.5306340574671724 -1.6841639080521096 4.770262638222649 255 255 255
1.7695274159981274 0.049526160133273316 4.424075361014213 255 255 255
0.5631448683749843 -1.4315372316490043 4.747904010043285 255 255 255
0.8378115786324558 0.10683360237223663 4.346550270918958 255 255 255
1.6023140300338876 0.6681074572128017 4.4211302500164535 255 255 255
0.7490809829878472 -0.8537820046014595 4.6833044696407145 255 255 255
1.7330139995611404 0.7519219484864158 4.392915225467143 255 255 255
1.625556387502917 -0.696589398660553 4.495265469112791 255 255 255
0.9859168468249893 0.9585066263058962 4.053451148775286 255 255 255
1.3529101649422557 -1.6567466958977262 4.602029558584008 255 255 255
-0.39639761322212475 0.5116174932704445 3.3824047807144026 255 255 255
1.7997898676024573 -0.9611280412000487 4.480367984307787 255 255 255
-1.7179525303803858 -0.19212414531552263 5.144941359406786 255 255 255
1.3248192923601114 0.34351918017859406 4.5028552028694 255 255 255
1.693980232249461 -1.141491073552875 4.506226759587544 255 255 255
1.1510276304871043 -1.6649742297232184 4.646414608239518 255 255 255
1.723425035500606 -0.4345352061776895 4.460752873507983 255 255 255
-1.7708249510353438 -1.0600695088548415 5.194019301656769 255 255 255
1.7094641504171297 -0.9684442934058632 4.487328133117314 255 255 255
0.46629866498380135 -0.5742425159101622 4.549653756498465 255 255 255
-0.23640955592031554 0.4978833010123973 3.3521113617615317 255 255 255
-0.6415915357595349 0.37221191400997505 4.465793975437022 255 255 255
-1.8582939696167922 -1.5365574068254115 5.230185106349262 255 255 255
-1.7092070828610733 0.29015251030698386 5.124463119534335 255 255 255
0.673369441197962 -0.9242679460558689 4.698878954446114 255 255 255
-1.1245324907712508 -0.7802453210235687 5.0497070731930815 255 255 255
1.8860358644516444 -0.2737380782539263 4.416568751414889 255 255 255
1.9299974389556853 0.8919714986498515 4.335652718037192 255 255 255
-1.1915726951047727 -1.5286919276330297 5.096654706667077 255 255 255
0.361379480529306 -0.5678020013863002 4.584717725194915 255 255 255
1.930612073994962 -0.9539390244281268 4.447586720252419 255 255 255
-1.2290339932406897 -1.6181390850452373 5.106379814875775 255 255 255
1.515030844839354 -0.9182334531038558 4.537372112942383 255 255 255
1.3497963911742432 -0.35190378042621906 4.534619814609983 255 255 255
0.050883391802256164 -0.3306783319667554 4.519204524244567 255 255 255
-1.7619488308477176 -0.17480611261205103 5.17093381219334 255 255 255
1.475640403883402 -0.8987015364635769 4.539387664058475 255 255 255
1.2830378568548917 0.568706142753256 4.492579021060438 255 255 255
1.6829940441254447 -0.603054776920096 4.4757594834578125 255 255 255
1.8347947854411184 -0.12923814417469956 4.4211887027539145 255 255 255
1.1971235005400793 0.171295729232473 4.536332490003322 255 255 255
1.5966176119522029 0.4060969127240341 4.456031837675858 255 255 255
1.6048190536473723 -1.0866586669456424 4.523535769895352 255 255 255
1.4990896495118426 0.12308210796099214 4.4709147432154515 255 255 255
0.11082889006978898 0.1530727868332088 4.495551660982486 255 255 255
1.8823087952003317 -1.0369372062830244 4.467168583866582 255 255 255
0.370329765264135 -0.27222494793417484 4.566693685339414 255 255 255
-0.21822445311221347 0.41932969244439355 3.130462507155258 255 255 255
1.7586400130159952 0.5731428331420159 4.396733118464868 255 255 255
-1.946783666616812 -0.0959175363804688 5.180805219852259 255 255 255
1.6180817686976405 0.6682863165164095 4.440532320321018 255 255 255
-1.5941928798331628 1.0354010525462534 4.555265931948352 255 255 255
-0.433577141326771 0.7380641493293718 3.4261834678756875 255 255 255
0.8235524076347254 -0.5879809413169219 4.657178705264768 255 255 255
-2.5046654749819934 -0.5382642292372913 5.303825774583368 255 255 255
-1.6632789169366982 0.21661874396268083 5.103751611348098 255 255 255
-2.0548687682622044 -0.023123389635160793 5.195498892613806 255 255 255
0.2270012607840029 0.8184446438464228 3.4391785835163 255 255 255
-1.5524278995024414 -0.7041774438656351 5.134429723249828 255 255 255
1.7671316982853158 -1.2372987233061985 4.505623669612768 255 255 255
1.3645733860068825 0.6864262688206944 4.478047086607836 255 255 255
1.6917619321556208 -1.290208559921377 4.515953271227525 255 255 255
2.0073594712252723 -0.6992766185018172 4.421788763034125 255 255 255
1.7216389265576604 -1.102492994304654 4.496956421365068 255 255 255
1.214851988720839 -0.4613726143931878 4.563341123300688 255 255 255
1.3229295473591678 0.5935264903675174 4.4952697196729305 255 255 255
1.3494097515294066 0.9786899419203574 4.380783457820897 255 255 255
1.4931885308698865 0.3233139717897772 4.4620996064012814 255 255 255
1.7338424590658685 -0.5291602481572482 4.454397562584875 255 255 255
-2.4995785944352003 0.5894174702526417 5.2443330344068215 255 255 255
1.5990187602885866 -1.2295381617122536 4.543229924987557 255 255 255
0.8478439098773477 1.0580604821968487 4.06812782933978 255 255 255
-2.2959614849401517 0.920234976364175 5.188304779967537 255 255 255
-0.44676698285289373 -1.0713743091484544 4.581940780285708 255 255 255
0.9586728181757675 -1.3571839631719733 4.6648937670317725 255 255 255
1.3806910853576457 -1.3798699527622298 4.586600625077671 255 255 255
1.7069942033865737 0.6742421328936062 4.391061891546926 255 255 255
-0.666071972635859 0.6255076873661843 3.4800991723394272 255 255 255
0.5892476663021001 -1.5437139436752403 4.749270029941087 255 255 255
0.9622389943801358 -1.0164392196352927 4.652006702446325 255 255 255
-0.6505529070472074 0.22205719658647188 4.7183171673282125 255 255 255
2.015503231565553 -0.9996723703638296 4.435294834762997 255 255 255
1.5287113964525694 -0.10449254207199789 4.483555115047728 255 255 255
1.1237371200090207 -1.4175822623592575 4.645238034614762 255 255 255
0.09189686707330008 -1.2078757692093163 4.472568660336509 255 255 255
1.4405224710159954 0.11190132581266772 4.496677547483465 255 255 255
0.671022910189452 0.3750998466589144 4.20293407810551 255 255 255
0.8916592839116342 -0.9517387853135885 4.658534277808538 255 255 255
-1.5949407327386729 -0.01573950882768385 5.104475354221835 255 255 255
0.9032120144535599 -1.6281079490535697 4.692985124343614 255 255 255
1.4143234292352562 -0.8448327883455512 4.551317711395849 255 255 255
-2.551434250178413 -0.20458590665800702 5.2963921698787475 255 255 255
1.7297357636328197 0.06500697181028504 4.4349454414536496 255 255 255
1.4704542634459066 0.5386276243614808 4.448478979389037 255 255 255
1.4320065860869076 -0.8645033835692321 4.5511099642529365 255 255 255
1.5946133074970534 -1.5948034440702614 4.559687703568688 255 255 255
-0.958281159694483 -1.6203686040871974 5.076438889954385 255 255 255
1.3021455321463395 -1.3109649038993187 4.5991705484485506 255 255 255
-2.1220528482272103 0.9867165581116337 5.1433457907451166 255 255 255
-2.0832464368081633 -0.8660076470479419 5.2360446873438695 255 255 255
-0.29413128646260545 -1.3628260445577627 4.427771753580919 255 255 255
0.6580934628219663 0.5113996909543714 4.134807196325619 255 255 255
-1.6819140008580367 -0.676028651220025 5.15262820852659 255 255 255
1.932106063923742 -0.39942773645041807 4.41914918249324 255 255 255
0.7568648332615618 -1.1548477721872095 4.700675371865865 255 255 255
0.49493321839349574 -1.2452805362139832 4.759896901648355 255 255 255
1.118431505748913 -1.046201600612926 4.6273261832955495 255 255 255
1.755471832968007 0.34021911911468083 4.413779847006201 255 255 255
1.1545089244575737 0.20418079899012048 4.542944002271288 255 255 255
1.4320615956114726 0.07689965976477223 4.489508146133696 255 255 255
-0.47684095369544366 0.3925263162423393 4.429266811526637 255 255 255
1.490594461060069 -0.8080812733895479 4.5305799624664305 255 255 255
1.187500935443042 -1.0730806456471855 4.613607896995652 255 255 255
-0.4649853843521487 0.807795617641472 3.426588891924783 255 255 255
1.0734384766291494 0.07502337921750903 4.570282319728324 255 255 255
-0.878476440509844 -0.02169419288436404 4.791243553187708 255 255 255
1.4375901226296313 -0.35516147189288133 4.517723602102211 255 255 255
1.5003076340450698 0.8452225436993661 4.442760902291637 255 255 255
-2.1105025967713256 0.25376588305663283 5.192582867807982 255 255 255
1.9832800150876677 -0.9941792888960861 4.437632963013145 255 255 255
1.683968918398226 -0.42498045561365894 4.464802084719151 255 255 255
2.002724162920641 -0.734114233135563 4.422087156807113 255 255 255
1.5488027103882103 -1.1097898592227071 4.532868848973306 255 255 255
0.7422313390394976 -1.4622731008487928 4.71544067624641 255 255 255
0.9580691329026435 -0.4992644651703946 4.616625545642817 255 255 255
1.3731788606562887 -1.485282910258495 4.589162863936652 255 255 255
1.4369375620711753 -1.2518848602309276 4.570607527608992 255 255 255
0.31993357295014024 -1.7128472042486138 4.82216111676301 255 255 255
1.2326476171047682 0.2957683186281605 4.525042609890715 255 255 255
1.344470347523471 -0.5984966078643417 4.552201595502846 255 255 255
0.7233355117048935 -1.5737661004252979 4.721757280093249 255 255 255
-2.384729948452856 -1.3471683229381373 5.341078471263326 255 255 255
1.976335198685337 -0.4152855221560636 4.404756256570031 255 255 255
0.5783531034132366 -1.4017240600909278 4.749390029889493 255 255 255
-0.6196699579466743 0.5076099120983261 4.393605513625306 255 255 255
2.01987255715264 -1.334208474940323 4.444313353233783 255 255 255
1.8087088078341573 -0.5101812555715892 4.443750521902062 255 255 255
0.6014408498700449 -1.4192695908228778 4.745522222927181 255 255 255
1.2790697872437233 -0.4631354657210553 4.558590924663368 255 255 255
1.3321810403738206 -0.5326189580727306 4.548836402623463 255 255 255
1.2763442644533178 -1.4484696998283313 4.613859801072246 255 255 255
1.4865439093813733 -0.25509897822715394 4.502476985114448 255 255 255
0.7342189411108497 -0.9940656448642927 4.687682941010913 255 255 255
-1.8691275224804422 -0.10444383611984129 5.166029137350221 255 255 255
-2.171711382399162 -0.47373697296130585 5.238921505261447 255 255 255
-2.045687454670696 -0.04705271336144099 5.192900867616178 255 255 255
0.6076049125018318 -1.6823042692435808 4.753472526575293 255 255 255
-0.696453452919186 0.2161842129333947 4.621680054543976 255 255 255
-1.9722790418217022 -1.5778748782338665 5.263110318269773 255 255 255
0.31052382951441326 0.0766131055401837 4.575810055504841 255 255 255
-1.3300967286587693 -0.8628495270175817 5.092906219331826 255 255 255
-2.0952546145716235 0.7992888452750395 5.153452085226041 255 255 255
1.8503897423942475 0.8154662253045698 4.366043962073856 255 255 255
1.1471184808493535 -0.11943758675981994 4.559111879923705 255 255 255
1.0954954282364877 -1.2402540726289728 4.64783279669559 255 255 255
1.1887167193422903 -0.3385871659424949 4.561320140887584 255 255 255
1.7677306473888867 -0.3899415752343158 4.444480850814852 255 255 255
1.1067222323273636 -0.005063250983179142 4.567958960754996 255 255 255
-1.9078415684728893 -0.2847680556660012 5.171997854691887 255 255 255
1.5391153944260005 0.21591498428911368 4.451174769472469 255 255 255
-2.45121918363219 -1.5350626581437472 5.354187492675966 255 255 255
-0.6671641916377858 0.2095210855716409 4.65160336881427 255 255 255
1.505088759967695 -1.3006596597716968 4.5611662624225495 255 255 255
1.4982915869556757 -0.6993385837538905 4.529840519678003 255 255 255
1.4526231373262477 -0.8325570374069872 4.54465300814687 255 255 255
-0.26867959244080875 -0.03801041432965486 4.403673646126521 255 255 255
1.6692955509628604 -0.778226469628257 4.494698023437128 255 255 255
-1.2776821491391464 -1.2338801754987847 5.104754326978095 255 255 255
1.5972284811112665 0.7933092810883505 4.428792588893696 255 255 255
1.6099967631814822 0.6540354963726335 4.427958741492988 255 255 255
0.4777303071796263 -1.6767585459394152 4.778998538860915 255 255 255
0.2309906193051878 -0.8467204445156241 4.6263432763753505 255 255 255
-2.3320187842044358 0.8522946853660838 5.214273676996715 255 255 255
1.3957252702704934 -1.3018663482109718 4.580868041943384 255 255 255
1.972435203881591 -0.4246858463388495 4.411632788644767 255 255 255
0.0025615327177566766 0.7261155096403268 3.3413854663189935 255 255 255
0.25058008776978047 -0.03596552780884731 4.59370168537921 255 255 255
-1.525352800435009 0.4187017709949573 4.635603102064084 255 255 255
1.808240005499349 -0.4879487918636754 4.4445373859592925 255 255 255
0.9187219451950009 -1.2222514377678053 4.6662701359009064 255 255 255
0.9387434887650591 0.41203469312296415 4.150154105004117 255 255 255
1.5858701688964927 -0.22836601113000649 4.482486505155289 255 255 255
-2.146663305324961 -0.26455702194029646 5.2250713869937675 255 255 255
-1.1234338963192965 -1.6044130317656147 5.1045604476974695 255 255 255
0.8784769955184845 -0.5586030054806935 4.638221611627204 255 255 255
1.4724545074730244 0.10570448944034554 4.478904182556955 255 255 255
-1.089976128387005 0.4690480164540743 4.560378984658258 255 255 255
0.8566185953789995 -1.6208192050706074 4.701084971246847 255 255 255
-0.9113925001477592 -1.3336665528442149 5.040451898468095 255 255 255
-2.44684319205328 -0.2498481060380908 5.279154641488098 255 255 255
1.8171769235012338 0.8340395286240525 4.374166843541227 255 255 255
1.333588022876456 -0.751067186603739 4.554587591715205 255 255 255
1.1844324259304346 -1.2422603018080252 4.619229054962474 255 255 255
1.4785014607190543 0.6119444929908142 4.4489881268718525 255 255 255
1.3650024412404 -0.007892844969718572 4.513392246866927 255 255 255
1.012911462807337 -0.8777486820925836 4.635648102778191 255 255 255
0.9295318111095389 -1.0006016186159474 4.651161043257395 255 255 255
0.37201158082720476 0.04333432870746833 4.555315819734814 255 255 255
1.4518631418415666 0.086704213417848 4.485450831085118 255 255 255
-1.9199808641367373 -1.0182103103596833 5.213320744559292 255 255 255
-1.3711234856593049 -1.4988466640084184 5.1402353998066355 255 255 255
1.5940645193748353 -0.011757575755335927 4.481285907067192 255 255 255
-2.192605215044691 1.0553010848043443 5.083811858500141 255 255 255
1.19853631298564 0.38104607238630167 4.523658070318439 255 255 255
-0.08469251695633154 0.4820956223193477 4.348694960838087 255 255 255
1.7898053616066463 -1.4424034934049874 4.507744127662254 255 255 255
0.9487504586547413 1.0503042383403853 4.051929211856188 255 255 255
1.6482016702423083 0.5712246978292124 4.430795544847784 255 255 255
-0.5503068311900783 0.4372693298714151 4.442755281903922 255 255 255
-1.6970711219864283 -1.2293385484228179 5.193048037532089 255 255 255
1.4055299821721638 0.1800936189847016 4.486605711302874 255 255 255
-1.8818227412401582 -0.7114800927533456 5.201672408290152 255 255 255
1.9622786207726173 -1.2206606950289327 4.451672112247456 255 255 255
0.5966508581347683 -1.4563923693751448 4.747095820343083 255 255 255
-1.0584355954837743 -0.3346832111399689 4.853664927906866 255 255 255
1.6326536845115873 -0.18870416863517872 4.478184361657101 255 255 255
0.9488065271053503 -1.2510776229880565 4.67009683077091 255 255 255
1.9353361260112427 -0.21621940854705346 4.405315021037338 255 255 255
0.9213736350091886 -0.5052060766018012 4.640566010586192 255 255 255
1.1084238200353231 -0.08512912899890411 4.568386950705249 255 255 255
0.899771152516766 -1.5836955143637461 4.700031160520429 255 255 255
1.600342026407464 0.4529580482551755 4.434729780581301 255 255 255
0.9939368778441794 -0.8711362379287669 4.638318415236334 255 255 255
-2.19956950930358 -1.2353894038530981 5.276754540293862 255 255 255
1.842496212785883 -1.0680650041834192 4.473753285336125 255 255 255
1.2154095665668188 0.2930082932617723 4.531743394245872 255 255 255
1.041040085984073 -1.0754068919631676 4.642901326734589 255 255 255
1.5967712811877666 0.03238869010611433 4.463099579872532 255 255 255
-2.514841106903411 -0.4324732596294573 5.296304493019119 255 255 255
1.5665005416136197 0.5752497042967887 4.444407937457157 255 255 255
-2.0661140088661867 -0.44222999144047015 5.21708536756435 255 255 255
0.725077221490995 0.316178187375869 4.276601020561293 255 255 255
0.08795058916003695 -0.08450398559532299 4.51038211648777 255 255 255
1.6692571737646373 -0.07082981900125161 4.455822632440064 255 255 255
-2.0638730809378516 -0.3778954254765606 5.212443417137233 255 255 255
1.7546979224397647 0.980844849099924 4.28982787890598 255 255 255
1.416246786661869 -1.5128164506230126 4.589861723022813 255 255 255
-0.9820533663798698 0.9849716769212296 3.4735352926384895 255 255 255
-1.8706326931477966 -1.4872686863380582 5.257840417613138 255 255 255
0.6880468745991232 -1.6748873816807979 4.740852169686805 255 255 255
-2.310508833560055 -0.942309306266961 5.2910435054516185 255 255 255
1.7480121187115742 0.8694368531501775 4.382900365618484 255 255 255
-2.4978115045987064 -1.3413741967577855 5.341759238098566 255 255 255
1.6730442662819718 0.03954940759103736 4.4428799739794504 255 255 255
1.0652562871026021 -0.14609930642770913 4.576981986214683 255 255 255
1.8686510675218506 -0.579615020331845 4.436887592218215 255 255 255
1.2132838748589725 0.8064601201292407 4.497377368734183 255 255 255
1.5467975571029555 0.5889091138053523 4.437653275096017 255 255 255
1.808123370288658 0.059117889221548585 4.422489596694548 255 255 255
1.152452746863357 -1.4373650075481965 4.644117959607171 255 255 255
2.0370153187326445 -1.1876855278636773 4.431055998663078 255 255 255
-0.9955910548363801 -1.3852767280272242 5.056643178134756 255 255 255
-1.3712147493664555 -0.8038709665478218 5.106936788755311 255 255 255
0.13126259051093167 0.922450961385027 3.303671378076278 255 255 255
1.1613285005052147 -0.5976243927626528 4.583355215661003 255 255 255
0.0772523690702211 0.9053351124201502 3.272287653363353 255 255 255
1.8656924577202256 0.7801258051680441 4.365404912727217 255 255 255
-0.8123951352414917 0.3217966795990059 4.5054322708318155 255 255 255
1.7836418324981476 -0.902426941094114 4.479154421200908 255 255 255
1.4751029706837995 -1.6145549971762023 4.585573705200914 255 255 255
1.8395345236104725 -0.40658586434248273 4.437097145333584 255 255 255
1.3071673047374972 1.0516069189346808 3.740547950564676 255 255 255
1.9502233165736846 -0.3674118553107535 4.40796347803649 255 255 255
1.3741391625644859 0.5282289047673892 4.486480891397726 255 255 255
-1.8702199056103148 -1.016192741764078 5.2068691989530675 255 255 255
1.5421572320748254 -0.8638215692044534 4.527797725995996 255 255 255
-0.5030463693443926 0.21495115548601246 4.54823054480305 255 255 255
1.234881186562371 0.8300077797484059 4.495242284802717 255 255 255
0.019974978392614477 -0.29814564497540835 4.530023234583004 255 255 255
-1.1079097512400236 -1.2181293916713154 5.077225044037017 255 255 255
0.8332169867129455 0.67593438021247 4.1472855858203 255 255 255
-0.6929818557130467 0.706734652783085 3.479469638456911 255 255 255
-2.4275829957209947 -1.663900662022782 5.3447784462221595 255 255 255
0.9215769161942544 0.6084953769823368 4.12725593341488 255 255 255
-0.8985527758470494 -0.11701516180224668 4.784198953791194 255 255 255
1.4074072331311214 -1.541218696310171 4.587457214185893 255 255 255
-0.7185652373421045 0.6940102637412079 3.4849427253971723 255 255 255
-2.3178844907278173 0.11756530255962666 5.238377886845157 255 255 255
0.05285771520016975 -0.3490457970112174 4.521230330095364 255 255 255
1.4945869964419427 0.18222751159531433 4.471662778742521 255 255 255
1.6107838894000703 -0.4463706398216291 4.47809740406855 255 255 255
1.9713560030975157 -0.5007398071614944 4.4081777354219245 255 255 255
0.9961031181165567 -0.8537325853416063 4.6456065509777025 255 255 255
-2.1830353874589403 -1.6096876033332548 5.309111766626763 255 255 255
-0.15373938937933534 0.02089122029984174 4.480382200365738 255 255 255
-0.5899278312379121 0.5594510319307531 3.4700427863300334 255 255 255
-1.9841101901470228 0.44824298780497945 5.163118291087357 255 255 255
0.8118585805802968 -0.05146055112763792 4.4536948878290925 255 255 255
-1.0587625800112281 -0.6099103925014279 4.7968781312372615 255 255 255
1.0951506607563422 0.038754775492817854 4.562803640767448 255 255 255
0.00690611424837549 0.7517937125032962 3.3402287199185396 255 255 255
1.1948761095419282 -1.6114242730206847 4.636182240867238 255 255 255
1.3797377556897268 0.3411330018713242 4.46998428567426 255 255 255
0.7756358493790029 -1.4307702923676664 4.707533745389063 255 255 255
0.45561812524663353 0.37204462794443954 4.251609652398763 255 255 255
1.2776626393468797 -0.4780637346315839 4.558206738968641 255 255 255
0.8819902477143534 -1.0418406269741718 4.677909830979471 255 255 255
1.633126564022022 0.2998121948355341 4.439402765412525 255 255 255
1.1654440612601473 0.23915117011405285 4.54211059762775 255 255 255
0.8868891969188469 0.07250745293067377 4.345144855618847 255 255 255
-0.9107650588554134 -0.586473370720859 4.811736366467937 255 255 255
0.8499151051929025 -1.42566097365144 4.699846085629441 255 255 255
1.367483720315192 -1.1634607287259051 4.631446028209504 255 255 255
1.526154159624301 0.3812491094825573 4.4603548920259515 255 255 255
0.7637185025724326 -1.1398301985677997 4.70045518374917 255 255 255
1.777361881233609 -0.5632802079319508 4.466165152124351 255 255 255
-1.403762752200546 -1.4593113913634894 5.134579151492529 255 255 255
2.029975961308257 -1.1006847497776417 4.432205851361646 255 255 255
-1.5818122729149555 -0.9556711883756093 5.158671719466386 255 255 255
0.8111183921144611 -0.9373554943290764 4.678631437362453 255 255 255
1.8037849918599367 -0.44206203545959133 4.442395940337053 255 255 255
1.6361131260873776 -1.3460931725689556 4.531194765115051 255 255 255
1.2756131981227163 0.3856715699366281 4.511632358456402 255 255 255
-2.0641477081927024 -0.8481726237961504 5.242468521891787 255 255 255
1.7916273924412176 -1.5001750221339483 4.507186929259302 255 255 255
1.538731085107072 -0.41973825818532623 4.500551592016261 255 255 255
1.1467953944148632 0.2129188419431184 4.543985131387717 255 255 255
1.0570811604402703 -1.2488183837134743 4.63651057343272 255 255 255
1.3128258136820652 -1.1057832802746967 4.583873501053306 255 255 255
1.9427753053919887 -0.11151529231486576 4.398024622009154 255 255 255
1.251078846792521 -1.310359905811697 4.616230105997312 255 255 255
-0.8192229007019498 0.7832988210670362 3.4997430013164035 255 255 255
1.1676984805327053 -1.6035342720239478 4.646374642310096 255 255 255
1.5484670109343273 0.32420875003103106 4.44900285752923 255 255 255
-1.7027897861562908 -1.1758762312886384 5.182332432776491 255 255 255
0.4373263211279995 -1.33741832985159 4.772779555837694 255 255 255
-1.4226600863149264 -0.9187949435219899 5.112505499001127 255 255 255
0.5402143285634029 -1.6589924626625374 4.7665227167545465 255 255 255
0.9675987286331303 -1.4781826126675601 4.676042682022348 255 255 255
-1.845787608603288 0.4663691198953635 5.121797136016414 255 255 255
1.0840201842178356 -1.3299868619890423 4.6490900079159925 255 255 255
1.2188448717905012 -0.0900136186884767 4.550302799344563 255 255 255
-1.6066343405187171 1.0248978979744523 4.556005502219493 255 255 255
1.0196539400101863 -1.0249564779635618 4.644798886192103 255 255 255
1.8627648919727886 -1.5394086715891757 4.488949204052708 255 255 255
1.754724952909725 -0.6111048680736497 4.466947596201123 255 255 255
1.7263791044615773 -0.8421056880050176 4.4922010687272 255 255 255
-2.2599210357217863 -1.0404140594887707 5.281433295366741 255 255 255
1.2942295993816637 0.9682067018969001 4.3910675212145085 255 255 255
-0.48593697246386475 0.1889173414187092 4.587066256522148 255 255 255
1.8488154368546734 0.6936260683228518 4.364654574072545 255 255 255
0.9880036629995486 -0.9822831229563141 4.64362195743644 255 255 255
1.1893800446522638 -0.3967370909818663 4.574076459256324 255 255 255
-2.526640204560999 -1.3177061944272952 5.342597689666361 255 255 255
1.4802426707933118 0.7107327434613715 4.449751769701748 255 255 255
0.8676731729841982 -0.7589414742064782 4.6543260528854296 255 255 255
0.7133620196865446 -1.6930267198078335 4.731888299363564 255 255 255
1.3275761462560458 -1.5049455829939982 4.601906827752532 255 255 255
-2.250108229567631 -1.01023877623265 5.285566769427277 255 255 255
1.5903999864976994 -0.07506774663662065 4.47663629587202 255 255 255
0.2724818000488829 -0.09822832185272791 4.579999345205921 255 255 255
-2.3198998320441517 1.0787707409301903 5.102592036764708 255 255 255
1.4066876198980902 -0.4281375044377748 4.529042275894797 255 255 255
1.302650678853324 0.6244701408004235 4.4933758047908015 255 255 255
1.811420508412546 0.2924715805711366 4.389616825555093 255 255 255
-0.46644343219816353 0.4699645370310288 4.425227013355708 255 255 255
-2.1155499815481478 -1.2305937957855901 5.271009789020684 255 255 255
-2.2166639422602596 -0.5391192836206588 5.256912199291697 255 255 255
2.0041130294927996 -0.3049084710255689 4.405758442265859 255 255 255
1.3432921252952548 0.38427398478610936 4.50323021442497 255 255 255
0.9674310393049776 -1.6270420105856351 4.682656071053483 255 255 255
0.3876366665504355 -0.18136506745835196 4.546829599007753 255 255 255
1.875232191930776 -1.4889559728851514 4.484828282173414 255 255 255
1.2450593574807856 0.48568775987717067 4.5033446443704355 255 255 255
2.0066447709317883 -0.36874476378162435 4.407191237585131 255 255 255
0.8134946745574649 -1.4212476328055108 4.70463312928772 255 255 255
-0.9222126025641678 0.7079647221624127 3.528390879940626 255 255 255
-1.7539023678709462 -0.9301783526610775 5.176555355391096 255 255 255
0.9964225944664826 -1.219578962658317 4.64082624465572 255 255 255
1.8295363637686155 0.8918894193856675 4.358786033074768 255 255 255
1.8736591398085884 0.03399796625250461 4.401304656013008 255 255 255
1.8329571249719883 -0.5130733575310505 4.440298564904281 255 255 255
1.962380537785036 0.25545645950963725 4.375303570873932 255 255 255
-1.9439200148004363 0.839627945303951 5.122561597973592 255 255 255
-2.5919562098000166 -0.8500226259921996 5.3406814307910615 255 255 255
1.4534197748566817 0.32529109767061987 4.462141636791467 255 255 255
1.5090175223474833 0.32140241794013763 4.467771077169156 255 255 255
0.9728161530619388 -1.6421759393104929 4.683272360851848 255 255 255
1.0795657899609192 -1.2322445543489016 4.647627180842027 255 255 255
0.9257735923147559 -0.6488546960103896 4.634314721711611 255 255 255
1.9582589992128423 -0.24939192121515322 4.400581915823719 255 255 255
-2.2781381730744266 1.0584459195759781 5.098975368774538 255 255 255
1.6014800748885305 -0.4696955839654747 4.485331416300569 255 255 255
-2.5342951868121424 -1.0358358919861044 5.339339845337266 255 255 255
1.6185747621042545 0.4731216272100249 4.429943694650683 255 255 255
1.3175610010961691 -0.8071276731463869 4.564694336595929 255 255 255
-0.8885520717770035 0.36720941085505937 4.510641197717502 255 255 255
0.700734379380947 0.32427411933160455 4.195234359793025 255 255 255
-0.21018009555048298 0.6352012909883843 3.3882805778312552 255 255 255
0.8363586370167835 -1.3331183888477767 4.699310264239399 255 255 255
0.845191059257154 0.6489701198238838 4.137889145480682 255 255 255
0.9143038825697 0.649266834568161 4.1170560029335075 255 255 255
0.8294803853613777 -1.214956782352434 4.684089662703687 255 255 255
-2.5262898403706826 -0.14777599649887174 5.294531060665517 255 255 255
0.46576267372260716 -1.291839334767611 4.7624927249917715 255 255 255
1.396193241386261 0.09257503020396399 4.506877869874228 255 255 255
0.894238671172619 -0.9677714891385554 4.6556850932864435 255 255 255
-0.533653945076712 0.4327368253999512 4.443143179623142 255 255 255
1.7421350483393943 -0.8363520087377767 4.485250627533982 255 255 255
1.1475175814657785 -0.1609451351254826 4.5681178772511535 255 255 255
-2.418434746406069 0.02747763757756512 5.275217617813661 255 255 255
1.6658742547520784 -1.248085467412536 4.520514328912882 255 255 255
-1.4930025845451167 0.7704935589885215 4.606125215851012 255 255 255
1.062135091568258 -0.001377142268931667 4.586413240075462 255 255 255
-2.3083399264309463 -0.7059877653341242 5.2634123433130675 255 255 255
1.2362680298933215 -1.3210030230861627 4.622581347345235 255 255 255
-2.0071729417638324 0.00928724434349476 5.187885244796188 255 255 255
1.008027849798571 -0.8887686174110536 4.640019500416294 255 255 255
-2.481526457732348 -0.629019315270899 5.306696631870358 255 255 255
0.6477961930234087 -0.7309959357808807 4.699106924289558 255 255 255
1.3237189277023167 -1.097688073698277 4.583085657248993 255 255 255
0.7653356418453855 -1.1128599265670773 4.695039331707879 255 255 255
1.986923309840623 -0.5201311502684973 4.408771762482731 255 255 255
-2.2560431523826368 0.0979530887925563 5.231965903113082 255 255 255
0.823126715489987 -0.05745433085928599 4.446642517631675 255 255 255
-2.395438593275947 0.6349377436378805 5.224275097702308 255 255 255
1.7346007153926923 -1.013644134817593 4.4933083742235755 255 255 255
1.4404757301539843 0.8836369890924003 4.451124504565977 255 255 255
1.8722541820826188 -1.3581713864632032 4.482558153040633 255 255 255
0.8809471763966428 1.0567697733426231 4.063534615632261 255 255 255
0.8052350989753685 0.9275274994844523 4.090230541595804 255 255 255
-0.6634547250952572 0.6887057597087586 3.475143769435094 255 255 255
-2.4309194308916493 0.4565947080695486 5.245117565498321 255 255 255
0.689661890692218 -1.2684089207669171 4.712340234748682 255 255 255
-0.4345174195014734 0.7131679140520126 3.429723157271267 255 255 255
1.4708238108895464 -1.613056010453976 4.577601864966912 255 255 255
-2.465998251492319 -0.09706511124675635 5.278122140900074 255 255 255
-1.2688844976758415 -0.6042068104654545 5.07012074941396 255 255 255
1.3672673726951192 -1.3969689321163894 4.591457454562679 255 255 255
0.7243222281787921 -1.3611549209004226 4.711144441402435 255 255 255
1.4196959420596431 0.020475132455503395 4.493873259397306 255 255 255
-0.9477404177540178 -1.3100765073191234 5.038011725965646 255 255 255
1.4362056333781 -0.33706485845526285 4.519903919501881 255 255 255
0.21219159085047196 0.34170983220835377 4.299126650693427 255 255 255
-0.7150924354953571 0.8221305188396414 3.4811239462532626 255 255 255
1.3024140820235741 0.6009243327661401 4.487876716591436 255 255 255
-0.8657680566848457 -0.7436722998372716 4.818570191987883 255 255 255
-2.54753767842376 0.7177883901854909 5.245532779832626 255 255 255
-1.7408121731079804 -0.4111205263903291 5.1515103671419125 255 255 255
-2.301115629047608 -1.419797866375729 5.305241665533957 255 255 255
1.3158376669631402 -0.7082576148923455 4.574388027989192 255 255 255
1.9523436880174707 -1.6105427496947862 4.482751569767713 255 255 255
1.2131077537694743 -0.2392889061908148 4.546799816968932 255 255 255
0.9184875288306632 -0.6330189833219814 4.629269301935054 255 255 255
1.334138830685932 0.6297826353567532 4.489095225084431 255 255 255
-0.545249597564393 0.46694851493054756 4.445720352862208 255 255 255
-1.1100038398790046 -1.3399603502572413 5.064097529800225 255 255 255
0.6788144637890061 -1.6651819043238743 4.747688991227109 255 255 255
-2.090601033436765 -1.6551788632942908 5.283009525543162 255 255 255
-0.14240412668618818 0.9769835760621516 3.3067656482463748 255 255 255
-0.7748696461402906 -0.6300248032250233 4.8051823820203525 255 255 255
1.684741150199325 -0.2485243624950358 4.4593570363771535 255 255 255
-0.16455988889254256 0.9771341604213717 3.3097502810600776 255 255 255
1.7254552493581634 -1.5307646006107904 4.523650406179578 255 255 255
0.7319339912207585 -0.08579870731623462 4.467047075763185 255 255 255
1.8027570412671425 0.6875108190365578 4.381703327006811 255 255 255
1.4400948463113294 -1.3334292789078503 4.584784767369676 255 255 255
0.8895923632065194 -1.091810038089093 4.6719201482004875 255 255 255
-0.197438763456476 0.6140396249138147 3.387637183715238 255 255 255
0.0453434299302094 0.43330720877585965 4.325615248948433 255 255 255
-1.2268739122817625 0.31129795149480666 4.76633714889931 255 255 255
1.4004022148419988 0.251646462565564 4.489826978504739 255 255 255
0.9479053935963792 -0.8662098474026086 4.642986567023878 255 255 255
1.660166000812998 -1.2345300677183642 4.518902708297079 255 255 255
-1.4627052188747935 -0.57912222954952 5.10180630376116 255 255 255
-2.1287981718252285 -1.1016065760968239 5.255644628080142 255 255 255
1.0668293030898948 -1.6546735919116424 4.665910701485489 255 255 255
0.6490278946416824 0.31896353779617137 4.208043510769235 255 255 255
1.0662323834132559 -0.5387133744795958 4.601266522600183 255 255 255
-0.8993992476106685 0.4307578136494285 4.5132117544574735 255 255 255
0.8294994391177124 -0.6479218212177685 4.656880147066685 255 255 255
-0.6079483646177074 -0.09693381586136686 4.652330966729591 255 255 255
0.7903166269283723 0.7367379621781276 4.1507677861577434 255 255 255
0.8879257737839594 -0.8191382463389424 4.658456642406729 255 255 255
1.224294340899141 -1.0045871794296022 4.5940213828737635 255 255 255
-0.9177539683504744 0.6750215283116543 3.523929585132567 255 255 255
0.6389564928596286 -0.07498475291027484 4.494144528189261 255 255 255
-0.16349088336803042 0.6146181992945147 3.3750828145973535 255 255 255
1.5874066800829352 -0.8980195506635512 4.521283269064407 255 255 255
-2.3553708061886693 -1.039875398837529 5.308381214703343 255 255 255
1.9002755648425693 -0.5813469291350369 4.434971897810092 255 255 255
2.0194330248213928 -1.5142395847606713 4.455810694194523 255 255 255
1.2647495505290953 -1.315985570149113 4.605627047823046 255 255 255
1.9076625642295024 0.5387403215660892 4.365832226988714 255 255 255
1.8062807184641774 -1.1047826871366175 4.479083957162796 255 255 255
1.7627330488638018 -0.4325148670433849 4.453686359331115 255 255 255
1.4154803984516813 0.055262237210488986 4.500586929862328 255 255 255
0.6366006670887863 -1.229157107832076 4.734494457026669 255 255 255
1.5659041523549857 -1.3553940963189859 4.548770180693918 255 255 255
0.5276506018737466 -1.3295452552243396 4.7513996587919545 255 255 255
1.6421444750288403 0.6002682882311638 4.430393696520736 255 255 255
1.4506099660617275 0.2200384868683815 4.484134304258378 255 255 255
1.3186189792402208 0.8483587576525671 4.481783288504151 255 255 255
0.5422438106997037 -1.3832117982866599 4.7511185389881625 255 255 255
1.1001580648969485 -0.49563865791197637 4.583894592924914 255 255 255
1.206127963638599 -1.275771523607297 4.6176634247830775 255 255 255
-2.2653643395228276 -1.2282037793279368 5.286522314719976 255 255 255
1.7728376945357172 -1.152040399762694 4.484914582368779 255 255 255
-2.3443873229723478 0.08905193289899109 5.235774942601208 255 255 255
0.5630420235619115 -1.263331415171466 4.74294799378102 255 255 255
1.6402255859839512 -0.1660557280956433 4.479222515154352 255 255 255
-2.277755247272142 -1.209835443106906 5.2967634479059384 255 255 255
-0.7745095985444755 0.347771852280981 4.523600210655425 255 255 255
1.5002729566512487 -1.4671873239191549 4.563553934707864 255 255 255
-2.0386577874787126 0.3575886754702803 5.169208297571317 255 255 255
0.6982782018907996 -0.10815209019389044 4.480779360049282 255 255 255
1.006066982649653 -0.6232781776926212 4.618374754303123 255 255 255
1.220645563548347 -0.3423929369185228 4.556529379463948 255 255 255
1.9316728273136494 -0.16624570349430465 4.395846307842165 255 255 255
2.05126571591981 -0.4239984777105905 4.392913352828192 255 255 255
1.5585348491313702 -0.025551256074934334 4.476791936175309 255 255 255
-1.0214093836866958 0.3662443408152067 4.544229767040866 255 255 255
1.5503302610149414 -1.3039160422308644 4.552317013152873 255 255 255
1.0907418167417373 0.07427065693793283 4.561266018770853 255 255 255
-1.147051166928671 -1.2252698715731867 5.062341460887837 255 255 255
-1.2455610624048616 0.43962975074318805 4.5815889411213595 255 255 255
0.7392852267316269 -1.0780691967441467 4.703773047365574 255 255 255
1.0444954270213607 -1.0306359405042884 4.639669489642284 255 255 255
-1.8498215334379615 0.33837087382766673 5.136989371603644 255 255 255
1.3528712424232883 -0.9981278470119564 4.567765930823501 255 255 255
1.500923625674783 0.9621496847831237 4.35330202389356 255 255 255
0.363893453160285 0.395354961230214 4.270442603082586 255 255 255
-1.1989539542807943 -1.2675317694259713 5.0915869989906914 255 255 255
0.7527668981728842 -1.6685648000369333 4.72470529770871 255 255 255
-1.2972976913978151 -1.5510727349437536 5.130206222539968 255 255 255
1.4046728772099522 0.12597629552076453 4.491758723384428 255 255 255
-1.1071060310596066 -0.8711895724636144 5.0516597993837715 255 255 255
1.3636590028110158 0.05518808443721596 4.510444568365231 255 255 255
0.3450740697317062 -1.6701930327066918 4.8038598268032695 255 255 255
-2.322683505920608 0.2892571127764032 5.236292954617414 255 255 255
1.6434771778318296 -0.9576174441439054 4.5121481103415615 255 255 255
-1.8414924201822462 -0.5368348248814554 5.170599173086201 255 255 255
-2.366446424636834 -1.1878245694399332 5.3125092085017345 255 255 255
-0.46895778054258463 0.7449679629954921 3.434704542053177 255 255 255
1.1990970038918503 -1.1006726912361904 4.607646324089937 255 255 255
1.9874111702993347 -0.9440731347049195 4.429021630429235 255 255 255
0.7429381170053087 0.35071666114421407 4.19022445133718 255 255 255
1.777536071411838 -1.5150498610177492 4.509094852926927 255 255 255
-0.9408589109122256 0.7485807620938133 3.524987139001304 255 255 255
1.2128401167940748 0.3527952842740539 4.525955244387739 255 255 255
1.7207444330048818 0.2666957799675594 4.424526406700556 255 255 255
2.027954028741648 -1.2446537934067077 4.444623918505062 255 255 255
1.7891063920165837 0.7244519561088115 4.381283923580644 255 255 255
1.4500626999915 -0.729401146117327 4.5392383629305115 255 255 255
2.0023080927658667 -0.5670846825308187 4.412355100339504 255 255 255
0.3984161309035956 -0.13297696262124303 4.495924150296617 255 255 255
1.6008166871213094 0.9697039279854557 4.330244464414088 255 255 255
-1.2253614650734743 -1.6626814025429895 5.1151434302231875 255 255 255
1.8849361425802589 0.7453095282657907 4.355360084707925 255 255 255
1.5523876798044907 -1.190367231143025 4.535173267043465 255 255 255
1.4989300986115262 0.019454094696976804 4.479985183036568 255 255 255
-2.292473379934786 -1.021261955738855 5.314120255314227 255 255 255
-2.04340597961298 0.7889466474720129 5.1418723824225845 255 255 255
0.36893233572873174 -1.6935677340393858 4.7982692206660555 255 255 255
-1.2103559140387414 -1.5080979704530106 5.1058865112745435 255 255 255
1.430964103666885 0.24517161604524595 4.493961985199427 255 255 255
-0.6319088038217646 -0.25036786932600197 4.659949306968618 255 255 255
0.5441738330605658 -1.676389426967825 4.768732049056807 255 255 255
-0.28659230864824037 -1.0417803367369132 4.630494186322956 255 255 255
1.6119111844207672 0.5142999008225192 4.424182935561302 255 255 255
1.2074999497697518 -1.0568034512872455 4.620669945383723 255 255 255
-0.40212050003799316 -0.3540245521878531 4.618375838601161 255 255 255
-0.07775219898182816 1.016257257206252 3.2931536143870295 255 255 255
1.433951680555218 0.6933493787265524 4.455865457673378 255 255 255
-2.3307083176913013 0.6404812984393716 5.20594575389766 255 255 255
1.0346143908996814 -1.0619944380627482 4.634080166408254 255 255 255
1.1681651786201446 -1.431012155970473 4.640089392923239 255 255 255
0.6695428377447239 -1.2539406968365854 4.71751269431179 255 255 255
0.380088482964512 -1.658136166635763 4.7957676518625005 255 255 255
1.0041161334509352 -1.0211000490166484 4.648163865003251 255 255 255
1.2480461015073039 -0.020750312140385474 4.531512827827131 255 255 255
-0.7999800059110017 -0.8716432135874459 4.805850193312839 255 255 255
-2.0040004633322273 0.7537725320100875 5.149201623942061 255 255 255
2.021370557425116 -1.0136412278536777 4.434645174455115 255 255 255
-2.2977936318150936 0.08432943171881438 5.2302390911669985 255 255 255
1.455127095838434 -0.9343088471168637 4.546048354195786 255 255 255
0.5934223024298192 -0.8601382146756313 4.718413812241454 255 255 255
1.6449964396556165 -0.23590119803935136 4.4674668414615795 255 255 255
2.0459188054402966 -0.08628121093753294 4.376640903352982 255 255 255
-1.2561232186571334 -0.7135466242214195 5.07522894198445 255 255 255
1.858479002603992 -0.307219262844653 4.432401935712506 255 255 255
1.6915946560359012 0.25664051740868515 4.445338394873907 255 255 255
0.8420583305403867 -1.4738340083182568 4.69783568236851 255 255 255
-0.9066297416475037 1.0252820061828303 3.4597398021842536 255 255 255
0.9432913891858065 -1.1185391482117606 4.656748610427048 255 255 255
-1.2435708923456088 -0.17364843043506784 4.8033178187335315 255 255 255
1.9222561519024168 0.6604852972926852 4.365222883671563 255 255 255
1.1225754470810434 -0.6196683748378331 4.600180072440217 255 255 255
-0.2835727007758329 0.432864769156179 4.399709441146237 255 255 255
1.624491727917369 -1.6042805445653343 4.544345355099725 255 255 255
-2.3010445573270184 -1.6036396054746136 5.316599382810253 255 255 255
-2.252315659034906 -0.5497499527986972 5.245247867432379 255 255 255
1.554521401032261 0.7291103320094301 4.430979688065157 255 255 255
0.05299413776828011 0.9126340876942329 3.273770507246538 255 255 255
1.4140121428448467 -0.45871813791764754 4.5308262534257295 255 255 255
-1.741236427861058 0.03467672010798304 5.126744889377621 255 255 255
-1.9258715911229538 0.0763267658581703 5.1626031299592805 255 255 255
-0.13347693824077989 0.8057302836160117 3.366081355172289 255 255 255
-1.1705206680920992 -1.2152404647744706 5.0786591868015805 255 255 255
0.8375268322288291 -1.5018835570607008 4.691747935887178 255 255 255
-0.9584257760717249 0.45677856276956275 4.534738048622221 255 255 255
1.8604196577502181 -0.23431798152688874 4.400417285875219 255 255 255
-0.13125391654711968 0.6309664532223869 3.3736788692992357 255 255 255
-2.4231950310246466 0.7451182279516791 5.2162334839833635 255 255 255
1.897573255235143 -1.119809380491032 4.460713109219925 255 255 255
-1.118200068617288 -1.3385763519453555 5.076660626629659 255 255 255
0.9780490523685599 1.050508171672253 4.043792694569029 255 255 255
-0.35787801336138014 -0.7660809328170618 4.6223481865852625 255 255 255
0.2726422778818073 -0.09822850347069255 4.578806358735006 255 255 255
1.8150927628429374 0.0205721610263656 4.420332291924878 255 255 255
-1.17011364812569 -1.2391450232915566 5.097075665459817 255 255 255
1.0192734047371566 -1.2253611801632904 4.644503559569476 255 255 255
0.9147693515875798 0.7273075310149517 4.118289824662039 255 255 255
1.4012272505562038 0.4193554721589289 4.477587168901568 255 255 255
0.0037254186019125574 -0.11393072781682877 4.521780217324589 255 255 255
1.9962659951536574 0.18397878177859894 4.372845027398301 255 255 255
-0.5328227003706828 0.2550626091269312 4.540296216449484 255 255 255
0.7293744809917903 1.0558453979781606 4.0927690044047536 255 255 255
1.5875526473581247 -1.2929992990534545 4.544652441772374 255 255 255
1.7377205143790173 0.33927967310847207 4.4178223851528555 255 255 255
0.6042386944206161 0.4769250281240029 4.214765636130914 255 255 255
1.3324166060904878 -1.1292756364188103 4.578314822671295 255 255 255
-2.479283160491294 -0.8660847814035673 5.311519234493404 255 255 255
0.38726093528738015 0.9636950503524969 3.4820773151586373 255 255 255
-0.6460041499373894 0.3956489329650468 4.485118514630381 255 255 255
-0.31012029493529736 0.06625884349519864 4.492844249893621 255 255 255
-1.6855754666282827 -0.9118002932780112 5.163785628476223 255 255 255
-2.3444361660087067 -1.6380539903614346 5.337636537335252 255 255 255
-1.720853958847268 -1.5263616442403671 5.206405437672294 255 255 255
1.6126279639548913 -0.24242039464329881 4.484047059159636 255 255 255
1.2458787516618504 -0.22295220282468822 4.5393953978874535 255 255 255
-2.3123824508677258 -0.2071531078145326 5.245914266853267 255 255 255
1.5525223539619906 0.08280601384759746 4.478915996932202 255 255 255
1.2601019330385568 -0.8188663721380656 4.581667974472656 255 255 255
0.459383053152239 0.37725231921313956 4.245998357348778 255 255 255
-1.3762460574870161 -1.6974805263572685 5.149940919022866 255 255 255
1.8382349057028688 0.6093619312480262 4.385759776223339 255 255 255
-1.3943969739989108 -0.8458468781434613 5.110185173357163 255 255 255
1.490170948472176 0.5987448311770432 4.4521685274263705 255 255 255
0.8013690219373321 -1.5078737715423922 4.701087209020387 255 255 255
1.4832180392473222 0.7118821995798433 4.447627210414124 255 255 255
-1.7048422836479433 0.16017959430957926 5.117254899162255 255 255 255
1.1859098669772457 -0.43400114039079113 4.573311173772098 255 255 255
-0.36877160470613257 0.7383127121186593 3.413150090934722 255 255 255
-0.3408782615049723 -0.5351624004568349 4.617897265770237 255 255 255
0.012895424426817535 0.7037438374260502 3.342419753143486 255 255 255
-1.5105948021579831 0.3558494933530053 4.650487055190137 255 255 255
1.4907424122436967 -0.8556303213450903 4.531726049818564 255 255 255
2.033034814770144 -0.5630087266941286 4.409057750218013 255 255 255
1.3650921924448907 0.03818148417456751 4.5070870243994126 255 255 255
-1.693012410111725 0.0980962478221305 5.110307551582332 255 255 255
-0.4079801074342008 -0.8483619704744323 4.63759439940257 255 255 255
-2.227997318679362 0.5206904416385312 5.195915909616584 255 255 255
0.7920507354957084 -1.2790125575529188 4.695336926485615 255 255 255
-1.8356849578789907 0.09206329389171135 5.14735862085206 255 255 255
1.4592890110817447 -1.5360221190020662 4.579819498132305 255 255 255
1.8910287304597644 -0.3293167067340452 4.419651645595126 255 255 255
1.2950204810714403 -0.32082990758563196 4.551045448663337 255 255 255
0.0017637831228700398 0.1553632206862594 4.5140842254798486 255 255 255
-2.298120614227239 -0.8621785493082627 5.291488234660233 255 255 255
-0.9139504793325457 0.6878779762802768 3.5269574025921946 255 255 255
1.2184099862423086 0.04829357804984983 4.536964780123564 255 255 255
-1.3333258114366977 0.1153020840060065 4.7791529612953845 255 255 255
1.3860265069470057 -0.4996646319824597 4.535214603731809 255 255 255
1.8603571797573184 0.13698147699885052 4.3957151269780335 255 255 255
1.5644470384768372 -1.6189404965220324 4.56587503937672 255 255 255
0.9409073695974959 -1.218222068716193 4.665969696966623 255 255 255
1.56766157858307 -0.21691413675951243 4.485471201163301 255 255 255
-1.6366289337017546 -1.4519234203499165 5.194106460319327 255 255 255
0.8277890369604389 0.22799843634984068 4.322992402787005 255 255 255
1.3871168765580906 -0.18035566381183699 4.516652621322631 255 255 255
1.3379026784276735 0.7681082429829058 4.470878465482044 255 255 255
1.7952924191709554 -0.9732919295684903 4.479013178946497 255 255 255
1.24515068107324 -1.2498948524175093 4.615301742073227 255 255 255
1.2750734719522003 -0.4462817695689788 4.557595827775141 255 255 255
2.0347945341597935 0.468108323251188 4.343621696814462 255 255 255
1.2080811849129482 -0.23050720325930824 4.550978455144546 255 255 255
1.9818061744815003 -1.4762848961144723 4.461821413009045 255 255 255
1.503017065292599 -0.44324974297835534 4.515096529786805 255 255 255
-0.7882441076259372 0.6191095518788529 3.501612609902207 255 255 255
-1.0781130547079447 -1.610415063870024 5.084407519303098 255 255 255
1.654890818750568 0.010928313244769396 4.451833178289414 255 255 255
-0.1290472337405147 0.00954180106167179 4.473450396059567 255 255 255
0.7165563370932181 -0.8495659776877715 4.69557719907474 255 255 255
1.685984888372021 -1.2256266101924775 4.5184425945228535 255 255 255
0.6099603833478628 -0.8538644668963989 4.722261414854276 255 255 255
-1.6207208784545142 -1.2320588268247874 5.17062894733395 255 255 255
1.5025402095130411 0.03185466239740125 4.476440174862721 255 255 255
