ply
format ascii 1.0
element vertex 840
property float x
property float y
property float z
property uchar red
property uchar green
property uchar blue
end_header
0.75848120284 0.210426274602 2.41022241069 255 255 255
0.160380882555 0.192760215769 2.25721734854 255 255 255
-0.613512557136 -0.497444434991 2.5997022375 255 255 255
-0.501726491869 0.442030205528 1.81202595313 255 255 255
-0.487831341115 -0.653801935941 2.59297653339 255 255 255
-0.901280252259 -0.136579507814 2.61640152213 255 255 255
0.0509221516554 0.185669341147 2.26810318028 255 255 255
-1.1038439173 -0.508926536729 2.65459810864 255 255 255
0.733925448116 0.404072410634 2.39783725157 255 255 255
0.193007045545 -0.423074585997 2.40926990375 255 255 255
0.68465432104 -0.538771015178 2.46068160308 255 255 255
-0.439405034179 0.377055819965 1.81681872646 255 255 255
-0.0815883128485 0.516855811719 1.74609504262 255 255 255
0.890618367784 -0.00209356345648 2.4007247244 255 255 255
0.602338880627 -0.271552715385 2.45265657559 255 255 255
-0.656364407613 0.236739443863 2.34831636001 255 255 255
-1.03404544661 -0.238931384495 2.63609578267 255 255 255
-0.981044145232 0.229536234542 2.60011829464 255 255 255
0.795250534872 0.574370678309 2.34410716884 255 255 255
0.187712467475 -0.419449739415 2.41246989567 255 255 255
1.0074360458 0.389632194816 2.36802284131 255 255 255
0.673015413591 -0.300887412916 2.44337177626 255 255 255
0.478766124559 -0.66474922028 2.5012581704 255 255 255
-0.731514405417 -0.472110645333 2.60874112733 255 255 255
0.767559562747 -0.218336282147 2.43122235188 255 255 255
-0.59215344791 -0.694574302986 2.60544027101 255 255 255
1.06933674121 0.0357488009087 2.38337618756 255 255 255
-0.872436638525 -0.324937663822 2.61568261984 255 255 255
0.0127864647054 0.3631250317 1.76725133291 255 255 255
-1.21000747031 0.150413524998 2.62684028819 255 255 255
0.918998844944 -0.787361788384 2.44384030852 255 255 255
0.322657937747 -0.154785366534 2.37816401192 255 255 255
-0.365498044185 0.314813611649 1.81191058093 255 255 255
-0.578765325993 -0.621801369523 2.60237745524 255 255 255
-1.04002752822 -0.181551510693 2.62882951212 255 255 255
-0.0675773639366 0.203588395244 2.27847004854 255 255 255
0.704341475684 -0.0989802157544 2.4309509767 255 255 255
-1.13378236788 -0.616999750931 2.66355145229 255 255 255
-1.04998488437 0.223876636894 2.61225372383 255 255 255
-0.512059947426 -0.691149687659 2.59995687424 255 255 255
-0.617515496392 -0.491059356383 2.59860463842 255 255 255
0.730643842572 -0.249062518358 2.43051667256 255 255 255
0.846332748957 -0.0724416611246 2.41067502846 255 255 255
0.99751202924 -0.0935521433728 2.40275681906 255 255 255
1.00730673584 0.454625530968 2.36623017656 255 255 255
-0.977038045695 0.127986312597 2.60476801256 255 255 255
0.557837757849 -0.734277565472 2.49159403781 255 255 255
-0.399300624173 0.218583677974 2.31646797836 255 255 255
0.73406954705 -0.480486618523 2.44951916565 255 255 255
-0.00334461416711 -0.0527585000269 2.36911542767 255 255 255
0.955379434326 -0.320249456165 2.41519015703 255 255 255
0.582309960188 -0.288325561727 2.45504962275 255 255 255
-0.839798077237 -0.214353597817 2.60576440814 255 255 255
0.680777002625 -0.236612191841 2.44176501286 255 255 255
0.885658989674 -0.39072271363 2.42474066891 255 255 255
-0.683507096046 -0.506782290053 2.60633858732 255 255 255
1.02708305257 -0.170162884082 2.39226070022 255 255 255
0.559940422598 -0.286607810338 2.45535763381 255 255 255
-0.315114093551 0.193791098441 2.31033177374 255 255 255
0.527699354018 -0.689932031077 2.48346717355 255 255 255
-0.661095250363 -0.425927550674 2.60030542863 255 255 255
0.756947334761 -0.235224330062 2.43660982245 255 255 255
1.06044069998 -0.481824932932 2.41198465658 255 255 255
-0.806110445222 -0.0386185544695 2.59726546091 255 255 255
-1.23255664659 -0.273600439239 2.64961333532 255 255 255
0.948871116578 -0.534010042945 2.43089400514 255 255 255
0.844019804432 -0.127227747583 2.42003188075 255 255 255
-0.897747784887 -0.369965693801 2.63186166493 255 255 255
-0.834924168367 0.0605420670949 2.5885047001 255 255 255
0.861732902062 -0.0414107088973 2.40929042013 255 255 255
-0.316195492827 -0.123190056723 2.40584744789 255 255 255
-0.84013454824 -0.662076059508 2.63241062927 255 255 255
-0.892480112124 -0.493430270325 2.62834763179 255 255 255
0.512798872868 -0.511540022365 2.47646897679 255 255 255
0.802909156031 -0.843505554046 2.46372644275 255 255 255
-0.00578140003268 0.0612514541871 2.36117969945 255 255 255
-0.596529030939 -0.629958926543 2.60371291542 255 255 255
-1.14879951241 -0.43643247844 2.6531302215 255 255 255
-0.577030237482 -0.385641130794 2.58680106598 255 255 255
0.798823769569 -0.608233455468 2.4527552446 255 255 255
-0.249300519047 0.203691005539 2.30026212328 255 255 255
0.927134654124 -0.576639402639 2.431841027 255 255 255
0.555084725904 -0.686462415187 2.48618658465 255 255 255
-1.02372596885 -0.0947568548641 2.61961844502 255 255 255
0.874227196396 0.0093548793723 2.40216829565 255 255 255
0.206291844856 -0.0629318922834 2.36976745818 255 255 255
-1.17208349216 -0.206533785375 2.64319520702 255 255 255
-0.860716899446 0.0626684791407 2.59516186004 255 255 255
0.90742662675 0.286635401051 2.38655781734 255 255 255
-0.914469043936 -0.040817350542 2.60770838412 255 255 255
0.861397842406 -0.463557515574 2.43726048725 255 255 255
0.0561203518216 -0.286665698999 2.32898932593 255 255 255
-1.09455961117 -0.420428489421 2.64390896359 255 255 255
-0.457733253618 -0.0299463348018 2.44487323804 255 255 255
-1.15688184407 0.163843130042 2.61867643454 255 255 255
0.945642390573 -0.0747518972899 2.41186779044 255 255 255
-0.940565098442 0.0707724373754 2.6016723371 255 255 255
-0.802226938688 0.0907289992828 2.58829979238 255 255 255
0.505067145924 -0.315400982751 2.46141379891 255 255 255
-1.10370100121 -0.260170450588 2.63633726857 255 255 255
-0.805664235273 -0.0380758253232 2.60100644146 255 255 255
-1.16229906539 -0.556755061634 2.66390176304 255 255 255
-0.0457183708301 0.0868344094685 2.35532285733 255 255 255
-0.967086764932 -0.159940487663 2.62090242845 255 255 255
-1.00021149318 0.283906073948 2.60017487378 255 255 255
-1.07699562305 -0.0844070543752 2.62691280367 255 255 255
0.137347091572 -0.503748418795 2.40248788305 255 255 255
-0.385886277274 0.277503051324 2.28285835687 255 255 255
0.945572236858 0.295392441573 2.3813874945 255 255 255
0.706305637871 0.471615571333 2.40092343614 255 255 255
-1.14919264885 -0.690919054054 2.67548410263 255 255 255
1.0781684401 0.320660509426 2.36047110664 255 255 255
0.0010758710738 0.194227060586 2.27574293838 255 255 255
0.321999386099 -0.759575953744 2.51145731522 255 255 255
-0.807597792408 -0.437070021495 2.61545809373 255 255 255
-0.303464045385 -0.00968487773783 2.39964900951 255 255 255
-0.552877667447 -0.00729446010371 2.49170774855 255 255 255
-1.10531604895 0.306764466769 2.60465188638 255 255 255
0.996252154807 -0.513283557245 2.42346484103 255 255 255
0.574509628326 -0.852759040198 2.48815830046 255 255 255
-1.2215351159 0.0128052333224 2.64306466065 255 255 255
1.06231304206 -0.126726358675 2.39540567084 255 255 255
0.971262859621 0.201096706437 2.37981999367 255 255 255
-1.12177929162 -0.102173545497 2.63405440821 255 255 255
-0.653646337627 -0.601259587229 2.6106132525 255 255 255
1.01180935978 -0.741566768491 2.43332799038 255 255 255
-0.99049122717 -0.716814522891 2.65809298516 255 255 255
-0.844073132271 -0.743553801135 2.63548019469 255 255 255
-0.927137737507 -0.450577544331 2.62986759992 255 255 255
-0.470377151144 -0.0611096669588 2.45023803037 255 255 255
1.0686280556 -0.875594834497 2.43263190085 255 255 255
1.04569547891 0.15848096233 2.38058077525 255 255 255
-1.0323521093 -0.682350512775 2.65720941925 255 255 255
-0.694535706439 -0.429259610575 2.60247242513 255 255 255
-0.209257645387 0.228661191665 2.29535518136 255 255 255
0.0423014869771 -0.544127910607 2.32776244678 255 255 255
1.08785320696 -0.300186654868 2.39704216608 255 255 255
0.129111354678 -0.0286367545678 2.40848640821 255 255 255
0.884682461972 0.352285193557 2.38797996482 255 255 255
0.709004153203 -0.813772308081 2.47013481209 255 255 255
-0.917196058129 -0.620153646611 2.64146730545 255 255 255
0.57854721761 -0.351994967056 2.4620224226 255 255 255
-1.22028662162 0.137455822349 2.62633557824 255 255 255
-0.226776522533 0.36740563481 1.79465583248 255 255 255
0.116372333973 -0.177375047339 2.41683036042 255 255 255
0.80888708046 -0.437059409149 2.43472989154 255 255 255
-0.5979941365 -0.653467429976 2.60173317739 255 255 255
0.290677315333 -0.673917661872 2.50922229049 255 255 255
-0.717335848254 0.0771930293237 2.4476944421 255 255 255
-1.23909641426 -0.187604277356 2.65299567428 255 255 255
0.671822340352 0.0721121694433 2.42122397894 255 255 255
-1.08421740275 -0.608893323501 2.6628608009 255 255 255
-0.98134616902 0.0952857839475 2.60567940337 255 255 255
1.02735972905 0.453764386719 2.37008058441 255 255 255
0.824925371069 0.0319491792546 2.41350860626 255 255 255
-0.699493962221 -0.633181745537 2.61487901617 255 255 255
0.598788770363 -0.592775423514 2.46950083838 255 255 255
0.315859785424 -0.126679210434 2.38256112068 255 255 255
0.769084964492 -0.0367625643611 2.42252445606 255 255 255
-1.10405589002 -0.28032236877 2.63647835471 255 255 255
0.957638874253 0.240952899598 2.38010074789 255 255 255
0.343865362386 -0.714844383538 2.50831545204 255 255 255
0.0622479673232 -0.535573420801 2.32934387082 255 255 255
-0.139897422941 0.0811319900619 2.36358027693 255 255 255
0.587032187653 -0.569917509162 2.46937828053 255 255 255
0.681956194323 -0.678047548886 2.46575785123 255 255 255
0.928200071214 -0.223851772293 2.41356959851 255 255 255
0.273487296072 -0.636309022497 2.50797244178 255 255 255
-0.685851145824 0.105109137769 2.43881122409 255 255 255
0.526946942101 -0.457843208424 2.47539653962 255 255 255
0.989820526195 0.425652792246 2.36840590166 255 255 255
-0.78830001351 -0.329044322498 2.6080370551 255 255 255
0.849138719682 0.110490812151 2.42705344224 255 255 255
-1.00665602022 -0.174688418591 2.63661887583 255 255 255
0.610935505654 -0.57049280682 2.46684247378 255 255 255
-0.209168684079 0.176463710313 2.29452594698 255 255 255
0.211907009196 -0.156602624735 2.40918249185 255 255 255
0.323046265879 0.197029242426 2.23763612746 255 255 255
-0.687614215402 -0.540137859734 2.60882615602 255 255 255
-0.808302177534 -0.429798574341 2.61815862418 255 255 255
0.744524252282 0.310693383521 2.40387271292 255 255 255
-1.06269446945 0.0727477740575 2.62113215047 255 255 255
-1.07308885508 -0.51048069625 2.64457937547 255 255 255
0.0231320467104 0.296827551448 1.76943319788 255 255 255
0.793601799756 0.432621644949 2.38946502882 255 255 255
-1.16045411457 -0.528213762319 2.66054487679 255 255 255
-0.0524817282403 -0.327165925978 2.38839268993 255 255 255
-0.531224744645 -0.267691452032 2.48182894817 255 255 255
0.296454548222 0.192935062448 2.24907340025 255 255 255
-0.197664856524 0.178245146073 2.29583846203 255 255 255
0.445461596287 0.458273509945 2.12211007899 255 255 255
0.962912837571 -0.352632400569 2.41398198665 255 255 255
-0.941046201203 -0.709251191078 2.64894948876 255 255 255
-0.682078160703 0.26097537487 2.34605758091 255 255 255
0.792527202353 0.394356801953 2.39917523745 255 255 255
-0.508824480012 0.460231583318 1.79578193694 255 255 255
-0.407491158184 0.42060585448 1.8114425952 255 255 255
0.932713781575 -0.252475973565 2.4127374613 255 255 255
0.980648291589 0.541399515608 2.31909876125 255 255 255
0.560286257956 -0.309057969842 2.45536213447 255 255 255
1.06013187764 -0.615852475467 2.41684418018 255 255 255
-0.768117083607 0.339645402627 2.33935023718 255 255 255
0.162768143413 -0.729134809742 2.32463532686 255 255 255
0.829624133205 0.326325368945 2.39527762519 255 255 255
-0.128524089254 -0.219219648508 2.39143049637 255 255 255
-0.760174135037 -0.257826936013 2.59102846728 255 255 255
-0.471280646022 0.318878166396 1.82391546006 255 255 255
-0.17794955104 0.0429699756213 2.34271742088 255 255 255
-0.124515531248 0.354509789087 1.78197716904 255 255 255
-1.15676354747 -0.0781144188578 2.61722906022 255 255 255
1.02521450514 0.0903400650427 2.38607283921 255 255 255
0.967891981955 0.405326882648 2.37048355073 255 255 255
0.798534036135 -0.241569398852 2.42881833697 255 255 255
-1.25569275827 -0.101941105588 2.64691342775 255 255 255
0.971025960188 -0.175555134968 2.41194347158 255 255 255
0.662542523201 -0.303929247724 2.45137987899 255 255 255
-1.06066846465 -0.0289910811675 2.62258588417 255 255 255
1.06799061316 -0.260066887798 2.39747961219 255 255 255
0.814882022962 -0.849236890614 2.45826310433 255 255 255
-0.303326590482 0.076008181726 2.39778505186 255 255 255
0.990070642822 -0.1269060252 2.39865059619 255 255 255
0.837612620311 -0.150762074987 2.41754872305 255 255 255
0.58152268749 -0.558341100479 2.47169313656 255 255 255
-0.478724207592 0.364006235155 1.81996433494 255 255 255
-0.625820427426 -0.274808416693 2.58698564222 255 255 255
-0.648111750336 -0.642003571852 2.61471508321 255 255 255
1.03078504021 0.331503781811 2.36769551412 255 255 255
0.0501680127465 0.23510286568 2.2666735893 255 255 255
-0.159400022195 -0.42764094912 2.40287987565 255 255 255
0.503483063088 -0.564004961387 2.48209969299 255 255 255
0.382753647987 0.232286799178 2.23025469217 255 255 255
0.535643245929 -0.491646002048 2.46723939125 255 255 255
0.460092588927 -0.699172106337 2.49060089253 255 255 255
0.710861542532 0.0339960713395 2.42698068312 255 255 255
-0.621268664132 -0.5312972308 2.59912553527 255 255 255
0.00750818130406 -0.521626776767 2.33764701166 255 255 255
-0.174799037954 0.239755228627 2.28652800289 255 255 255
0.680384993191 -0.7315235153 2.48386552878 255 255 255
-0.893318004224 -0.537219449847 2.62790619006 255 255 255
-1.15360729351 -0.190779629122 2.63804695634 255 255 255
-0.72700546582 0.109645347379 2.44564386965 255 255 255
-0.611250052557 -0.530129590279 2.59690309844 255 255 255
-0.475226445206 -0.626364880241 2.59279848082 255 255 255
0.85160689378 -0.302372149347 2.42565446621 255 255 255
0.391064006688 0.122782746997 2.30491457011 255 255 255
-0.87346616811 -0.56270378316 2.63189612876 255 255 255
0.981528805623 -0.136723010075 2.40160373038 255 255 255
0.677140951893 0.144250897744 2.41906464035 255 255 255
0.775184591355 -0.377286555578 2.43986877722 255 255 255
-1.08619220772 -0.203100521311 2.6330748919 255 255 255
0.541073935693 -0.55938553477 2.47663606162 255 255 255
-0.924107522989 0.128898911261 2.59835285837 255 255 255
-0.35160193284 0.235888285865 2.30920101174 255 255 255
-0.685670389555 -0.444405056244 2.59998709045 255 255 255
-0.465881528571 -0.41408740514 2.47023702409 255 255 255
0.699557247771 -0.265808007872 2.441470391 255 255 255
0.86534620187 -0.710738266451 2.44011053935 255 255 255
-1.15991589054 -0.0973914181521 2.6334652748 255 255 255
-1.1915500754 -0.401319583343 2.65590766789 255 255 255
0.199309827019 -0.0402118527168 2.36404451111 255 255 255
-1.02154835068 0.299436219794 2.59952765089 255 255 255
-0.904499029571 -0.467597015474 2.62913386717 255 255 255
-1.03224659802 -0.341573292516 2.63575762463 255 255 255
0.535306825046 -0.450216677383 2.45666375641 255 255 255
0.656408898513 -0.564334297116 2.46391741937 255 255 255
1.00523682958 0.324888952001 2.37206651644 255 255 255
-0.74190966403 -0.22931479993 2.59768436541 255 255 255
-0.971671059287 0.0422074451106 2.60268286869 255 255 255
-0.208079092079 0.22313723396 2.29606045405 255 255 255
0.361302632551 -0.0583352580486 2.37622690545 255 255 255
-1.23048049917 0.0433451534057 2.63220231188 255 255 255
0.375079199843 -0.0450003608628 2.37253644794 255 255 255
0.0141699046365 0.235556107482 2.26964557292 255 255 255
-0.919022450277 0.412275815477 2.57990038884 255 255 255
0.0292605454724 0.0790902475943 2.36691751843 255 255 255
1.04701045681 0.0737999385205 2.37923381985 255 255 255
-0.828731739389 -0.602866620239 2.62992645002 255 255 255
-0.0565846330355 0.457220565606 1.76258209704 255 255 255
-1.05125489556 -0.219941302852 2.62820745095 255 255 255
-0.941501626307 0.0668385999907 2.60126484699 255 255 255
0.730697400463 0.465129916167 2.39255488008 255 255 255
-0.0889199084759 0.354817596106 1.77925190584 255 255 255
0.271901973098 0.198182103257 2.2415792942 255 255 255
0.887640330347 0.0115857410359 2.40189212979 255 255 255
-1.12546200861 0.205115390178 2.6101040021 255 255 255
-0.289659745908 -0.00832283520181 2.40137994266 255 255 255
-0.598742629204 -0.683370695506 2.60705095321 255 255 255
-0.692347339712 -0.712425321388 2.62738341064 255 255 255
0.857053399219 0.0349224970432 2.40579594017 255 255 255
0.619153877859 0.0935494499798 2.42595354856 255 255 255
-0.279381607561 0.229288149525 2.30270226141 255 255 255
-1.1232349577 -0.606790617543 2.65544335421 255 255 255
-1.1669474473 -0.249203884713 2.63886763696 255 255 255
1.07632941171 -0.262799406814 2.39587907781 255 255 255
1.05183978823 0.0920338970161 2.37833002376 255 255 255
1.06851617281 -0.0456858547138 2.38431640923 255 255 255
0.394480983518 0.229640874011 2.22879645676 255 255 255
0.980218081323 -0.738411308485 2.44588457139 255 255 255
-0.862545516601 0.112571784621 2.59249046539 255 255 255
1.00120071886 -0.482826226738 2.42261276851 255 255 255
0.618380912816 -0.258115807576 2.45566288896 255 255 255
-0.295041748516 -0.00143867094981 2.4050355589 255 255 255
0.0365872131268 -0.180052909771 2.37422728482 255 255 255
-0.940956358249 -0.436014660624 2.63149369602 255 255 255
-1.09100522368 -0.613508774502 2.65793973108 255 255 255
-0.0195464700423 -0.125913459065 2.3742207786 255 255 255
-0.516828888386 -0.764255812702 2.60383543327 255 255 255
0.832259351705 0.0493714911068 2.4138897557 255 255 255
0.943933176688 0.0697783414413 2.38639810347 255 255 255
0.422409182574 -0.432678514527 2.48129986496 255 255 255
0.412617014059 -0.781725879263 2.49799215232 255 255 255
0.864543810394 0.276694106272 2.3869413255 255 255 255
0.384468919733 -0.828489716842 2.5094929831 255 255 255
0.530909387382 -0.525614249357 2.47537564608 255 255 255
-0.285995119056 0.509943143731 1.71290506223 255 255 255
0.618401891848 -0.87036831945 2.48481196328 255 255 255
0.472896043631 0.428083708613 2.20343622332 255 255 255
0.468589383713 -0.43450918682 2.47576159145 255 255 255
0.871669511072 -0.386697893877 2.42758266769 255 255 255
0.777934959618 0.099909044881 2.40736271079 255 255 255
-0.771568674335 -0.34970217373 2.60602981386 255 255 255
-0.933571373129 -0.548623332337 2.63785564838 255 255 255
0.875575341178 -0.300174490549 2.41968216433 255 255 255
0.852596336946 -0.000426775155101 2.41249329074 255 255 255
0.304090290193 -0.216303227012 2.39089900943 255 255 255
0.760484835058 0.0164205761305 2.41871877789 255 255 255
0.305828131409 -0.158887707096 2.38847623173 255 255 255
-1.20111915144 0.0405914525746 2.62491297538 255 255 255
0.508799942154 -0.578086048082 2.47561523563 255 255 255
0.614660582753 -0.0289737126016 2.43486897883 255 255 255
-0.49257514929 -0.453656577961 2.44490771925 255 255 255
0.448150940857 0.262276935182 2.21862835922 255 255 255
1.07791034015 -0.480359023997 2.4115576258 255 255 255
-1.23168013117 -0.435250125365 2.66426951725 255 255 255
-0.73964928744 -0.465306229719 2.60914842597 255 255 255
0.435105499914 -0.0463333081115 2.34865309249 255 255 255
-0.226822563812 0.367724137787 1.79481539636 255 255 255
0.820809634744 -0.26836397655 2.42914020245 255 255 255
-0.168667703256 -0.139380921238 2.35138146593 255 255 255
0.117953790385 -0.334306821411 2.42232460563 255 255 255
0.420685877427 0.0415380260152 2.33036971548 255 255 255
0.46498741997 -0.797269050528 2.50014129707 255 255 255
1.04339292916 -0.463459015637 2.41259732408 255 255 255
-0.483190769198 0.506903643617 1.79021683607 255 255 255
-0.0375650578068 0.38652019392 1.7760319268 255 255 255
0.689100696607 -0.377873905294 2.45059918606 255 255 255
-0.901121100788 -0.566226414471 2.64598045584 255 255 255
-0.871885323145 -0.716511526787 2.64563660359 255 255 255
0.837427269465 -0.478874927811 2.44002672536 255 255 255
1.00061993099 -0.535387680883 2.41524540111 255 255 255
0.26184605504 0.225412008701 2.24634808266 255 255 255
0.857304665032 -0.723806715675 2.45049031886 255 255 255
0.38962168235 0.00423454017295 2.37971114387 255 255 255
-0.940339393324 -0.129514255357 2.61366014941 255 255 255
0.697926913391 -0.430936623809 2.44991868448 255 255 255
-0.566557859557 0.229585513259 2.3353072116 255 255 255
0.348423916894 -0.812656540753 2.51499433527 255 255 255
0.854552039771 -0.0473176897594 2.41362779043 255 255 255
1.01495559862 -0.474084166157 2.41436847923 255 255 255
0.988281175846 0.478528012618 2.36576342458 255 255 255
-0.139045156678 -0.506134944881 2.39432751495 255 255 255
1.01396420515 -0.611966458507 2.42958381032 255 255 255
-0.939625116749 -0.351086374993 2.62926288459 255 255 255
-0.504225604999 -0.759343979699 2.6028655311 255 255 255
0.891555206537 0.0746703855832 2.39350656031 255 255 255
0.927231435748 -0.531598425657 2.43137533947 255 255 255
-0.378675591701 -0.087281626057 2.47091528055 255 255 255
0.794641546784 0.342505122765 2.39865484719 255 255 255
-0.808313553221 -0.623320811805 2.62771927742 255 255 255
0.283536781478 0.244719145674 2.24024752551 255 255 255
-0.646050178412 0.210535205237 2.34234716457 255 255 255
-0.60934842906 -0.311051840869 2.58477439818 255 255 255
-1.0834715342 -0.716344579954 2.66542445721 255 255 255
-1.11963563114 -0.27841885838 2.6429982269 255 255 255
-0.787925468025 -0.5728959817 2.62416849577 255 255 255
-0.726784563825 -0.622897400661 2.61647030955 255 255 255
-0.694746632269 -0.278503902396 2.59274894827 255 255 255
-1.00025525234 -0.150526853931 2.62152078816 255 255 255
0.678168063945 0.0768197202699 2.420987504 255 255 255
-0.179226703303 -0.0047625975451 2.3095336157 255 255 255
-1.03847711906 -0.641810340873 2.6550192525 255 255 255
-1.20962285199 0.141057589482 2.63005085088 255 255 255
-1.21677830921 -0.355821049575 2.65698561893 255 255 255
-0.865694536913 -0.329842151424 2.61306067856 255 255 255
-0.599045115715 -0.0631532548938 2.48091599942 255 255 255
-0.119402007174 0.409322862502 1.78119625984 255 255 255
-0.845103025139 0.181472513016 2.5873004616 255 255 255
0.963123949366 0.0115305777966 2.39968519864 255 255 255
-1.14714836569 -0.399671117421 2.65089011819 255 255 255
0.89925204546 0.0266625420873 2.40051816979 255 255 255
-1.11504261153 -0.602280426519 2.65995737754 255 255 255
-0.603454768615 -0.531575419411 2.59693061081 255 255 255
-0.28617859337 -0.0360667335173 2.40126024468 255 255 255
-0.897272752778 -0.123490512564 2.61201418904 255 255 255
-1.05457062871 -0.214312080956 2.63080583528 255 255 255
-1.09856039868 0.467860714552 2.59847055582 255 255 255
-0.551082479215 -0.625136981021 2.59768644509 255 255 255
0.557262998339 -0.453292872324 2.46628312047 255 255 255
0.610905171443 -0.262527188069 2.45714753704 255 255 255
-0.992025101933 0.268880826165 2.59462693918 255 255 255
-0.633270954075 -0.716085921457 2.61746878658 255 255 255
-1.14530606063 -0.293014730322 2.64358555904 255 255 255
-0.910486546352 -0.431985806232 2.62572055978 255 255 255
-0.576796607562 -0.353526110185 2.58968628723 255 255 255
0.469665324089 -0.825598343753 2.50119678362 255 255 255
-0.0242561919377 0.222725696971 2.2752902341 255 255 255
-1.14717044275 -0.0987890641451 2.63559538996 255 255 255
0.695551618163 0.280370695895 2.40860219121 255 255 255
-0.681416555347 0.0817192444333 2.44326336502 255 255 255
-0.915251074204 -0.467621379102 2.62860024003 255 255 255
-0.284099700262 0.200205910663 2.30324193938 255 255 255
0.856745581274 -0.802024591444 2.45430430512 255 255 255
-0.300605345198 -0.146301692877 2.41024722069 255 255 255
0.472251762676 0.454942117555 2.20218751131 255 255 255
0.63330871624 -0.58679639225 2.46793589906 255 255 255
0.876124360821 -0.772948457152 2.44511523128 255 255 255
-1.14118508871 -0.622472957006 2.66540319693 255 255 255
-0.747673615881 0.154842912051 2.40418936088 255 255 255
0.87187689917 0.0693247436019 2.4004226662 255 255 255
1.00483095808 -0.846844910111 2.43843368168 255 255 255
0.528925638899 -0.309165865123 2.45839820885 255 255 255
0.178381308594 -0.426234633586 2.41766215754 255 255 255
0.352360998786 -0.643727682892 2.49990695823 255 255 255
-0.747344980039 0.227636414657 2.35330571438 255 255 255
0.886288109275 0.0707453342986 2.39667644928 255 255 255
0.761938314319 0.192430417853 2.40400741124 255 255 255
0.840611721998 -0.2135371324 2.42395390725 255 255 255
0.967714773473 0.0253432415352 2.39576322611 255 255 255
-1.08575184797 -0.0731348334462 2.627577871 255 255 255
-0.868729409618 -0.592682384948 2.63557955548 255 255 255
-1.16046718398 0.161598859288 2.61987688597 255 255 255
-0.504400501887 -0.054815993083 2.47630013699 255 255 255
0.817580341939 -0.130658025958 2.42054796921 255 255 255
0.523106016126 -0.482112885332 2.47293268893 255 255 255
0.46583162273 -0.433076834002 2.47496730021 255 255 255
-0.446969731194 0.0324096688667 2.47257006024 255 255 255
0.699777316115 0.0730612922179 2.4165536779 255 255 255
1.05347813972 -0.723187360442 2.4238963891 255 255 255
-0.560228720396 -0.598327062641 2.60106643931 255 255 255
0.641396236711 -0.132207451906 2.43714262079 255 255 255
0.463454758666 -0.577341701019 2.48895200955 255 255 255
-0.573589610797 -0.402090185445 2.58871520242 255 255 255
0.910827145313 -0.253466337948 2.41361243206 255 255 255
0.94652118687 -0.0284790591354 2.40107775908 255 255 255
-1.06752594792 0.0104329628393 2.62224773213 255 255 255
-0.0710916543397 0.196948081892 2.28447847657 255 255 255
0.196756470568 -0.367101573973 2.40599310019 255 255 255
0.0537700832947 0.0927490027931 2.35740413802 255 255 255
0.884677910027 -0.620601465566 2.43525007787 255 255 255
-0.769576987542 -0.683845743152 2.62204508101 255 255 255
0.968437537807 -0.685192259772 2.43445749336 255 255 255
0.347918407895 -0.772784470341 2.51079502512 255 255 255
-0.978957591509 0.361980996929 2.60140259526 255 255 255
-0.532379501841 -0.609113199433 2.60072512227 255 255 255
0.709815698447 -0.109072863156 2.43003684269 255 255 255
-0.187298548676 0.0219955426705 2.33366337971 255 255 255
0.70925396543 0.033210608817 2.42799861188 255 255 255
-0.903580159487 -0.656355667439 2.64346208866 255 255 255
0.966825556259 -0.207831094552 2.40369299834 255 255 255
-1.01188969313 0.0531608478675 2.61126643936 255 255 255
0.386103844269 -0.485818351883 2.48671765684 255 255 255
-1.10926858096 -0.0435254425962 2.62644041472 255 255 255
0.874445642213 -0.797475010219 2.44729308326 255 255 255
-0.0258843561992 0.260679044707 2.27033993576 255 255 255
-0.317226566911 0.264550638105 2.26636763184 255 255 255
-1.21850225133 -0.551744947922 2.66810149231 255 255 255
-0.336173733696 0.204072548682 2.31643219985 255 255 255
-0.900430920099 -0.700853160143 2.64679687665 255 255 255
0.64303593832 -0.244931192811 2.44265418901 255 255 255
1.04608874974 -0.674636392986 2.42640749141 255 255 255
0.857821720552 -0.650623127401 2.4472972644 255 255 255
0.0310605027512 0.223439766547 2.27036850649 255 255 255
0.763602307303 -0.762544599971 2.46027151237 255 255 255
0.0252272430731 -0.0875627170041 2.36806120804 255 255 255
-1.22291482718 -0.573729909653 2.6658347348 255 255 255
-0.205518330113 -0.350945741141 2.40809643306 255 255 255
-0.132423130593 0.233910973361 2.28671978354 255 255 255
-0.146689442811 -0.0898945717029 2.39072722444 255 255 255
-0.238146193438 0.474038967501 1.76536649071 255 255 255
0.355548432252 0.211527619274 2.23572006547 255 255 255
-0.839098244101 -0.705887332878 2.63622953765 255 255 255
0.376603891002 -0.744543922328 2.5022503423 255 255 255
0.830004357607 -0.70845779339 2.45177123124 255 255 255
-0.720631494559 -0.533156400802 2.61766584129 255 255 255
0.199650444634 -0.292650626352 2.41159937324 255 255 255
-0.261458790979 0.262855431478 2.29593481094 255 255 255
-0.525959354788 -0.256974399763 2.48544324034 255 255 255
-0.272053806277 -0.672539500709 2.37412221016 255 255 255
-1.24357816958 -0.0205803628197 2.64712181727 255 255 255
-1.03962732775 -0.430774515873 2.64491482137 255 255 255
-0.42750904397 -0.42213934649 2.47802258886 255 255 255
1.07746071928 -0.169419918876 2.39053639204 255 255 255
-1.1345239657 -0.029219972661 2.62599602796 255 255 255
-0.85910660164 -0.701100566527 2.64176543247 255 255 255
-1.19535221431 -0.425433567023 2.65667786727 255 255 255
-0.685038599101 -0.500589555091 2.60733551896 255 255 255
-0.604814897511 -0.105549972563 2.4643865719 255 255 255
0.855182506452 0.0229077530985 2.40463602995 255 255 255
-0.110639694906 0.41723173606 1.77829852431 255 255 255
0.352698672836 0.199661792789 2.23329994638 255 255 255
-0.64399633861 -0.432573001073 2.60016885904 255 255 255
-1.23323397644 -0.442787378273 2.66319870418 255 255 255
0.291510479774 -0.700211900004 2.50744939931 255 255 255
1.10214237857 -0.376899372905 2.40117888262 255 255 255
-0.138620735597 -0.260686591216 2.39000843776 255 255 255
0.46981269462 -0.45019991954 2.47659010014 255 255 255
0.936973747435 -0.474948452841 2.42548088083 255 255 255
0.78829976716 -0.152683114871 2.42039464671 255 255 255
-0.649343356629 -0.265810187902 2.58925008843 255 255 255
0.825485261964 -0.0519782477609 2.41139792901 255 255 255
0.0387668778208 0.478221776425 1.73594483355 255 255 255
0.131253527539 -0.466436059058 2.42015393432 255 255 255
-0.551877804191 0.0620869604237 2.48206189079 255 255 255
-0.946744357696 -0.448064327928 2.63191795656 255 255 255
0.92097665787 0.221758691134 2.39056601665 255 255 255
-0.676985452334 0.019170237637 2.48974383356 255 255 255
-0.853237868473 -0.472259859258 2.62153214743 255 255 255
-1.07331765419 -0.159139188863 2.64124457755 255 255 255
0.314555475633 -0.845791805849 2.51894289677 255 255 255
0.726186786517 -0.653274973207 2.45764128996 255 255 255
0.433539031259 0.0876210143902 2.31119364696 255 255 255
-1.17381257103 -0.197064167602 2.63933465911 255 255 255
1.07111332943 -0.48477266117 2.40484089481 255 255 255
0.928047107049 -0.279874056037 2.41781787963 255 255 255
0.68834528278 0.168366354467 2.42352190833 255 255 255
-0.0499620507246 0.0234109342786 2.33298838719 255 255 255
-1.06380359581 -0.210059783799 2.62997408747 255 255 255
-0.63693501102 -0.702484643075 2.61969475178 255 255 255
1.01671254611 -0.239352865085 2.40189376652 255 255 255
0.702698484182 0.511105945789 2.35469302766 255 255 255
-0.590973037817 -0.660029264211 2.60912884036 255 255 255
-1.15549404 0.122925206205 2.62272508807 255 255 255
-0.96823654874 0.0868305113968 2.60766593821 255 255 255
-0.422824665044 -0.146190528696 2.47813914815 255 255 255
0.772170939495 0.133078604305 2.410561252 255 255 255
0.706169095732 -0.316468184765 2.44254371007 255 255 255
-0.691626187163 0.0253542330807 2.47906643997 255 255 255
-0.94514838829 -0.637134951068 2.64366812961 255 255 255
-0.965450071519 -0.638373016882 2.64413744854 255 255 255
0.937563200566 -0.314532873754 2.41760640346 255 255 255
-0.874733893151 -0.112739172378 2.60897502519 255 255 255
-0.48632959866 -0.170676677725 2.49051374035 255 255 255
0.85313263221 -0.0870038005319 2.41090295676 255 255 255
-0.188776066543 -0.419136579932 2.39802135572 255 255 255
0.627969737028 -0.465980966349 2.45627964799 255 255 255
-1.18574847358 -0.362521539038 2.65420597544 255 255 255
0.674046411566 -0.0820606103236 2.4294917824 255 255 255
0.402904011581 -0.508637354919 2.48797955164 255 255 255
-0.786797815168 -0.48540415915 2.61537546787 255 255 255
0.409605831386 -0.704516780582 2.49770596949 255 255 255
0.875748235187 -0.520270530603 2.43663608805 255 255 255
0.797782022657 -0.262813310109 2.43062458372 255 255 255
-0.702610525896 0.192952020706 2.34799514813 255 255 255
-1.08432788503 -0.0128117175165 2.62421764763 255 255 255
0.439063626493 -0.308627200482 2.47477352932 255 255 255
0.788482300625 -0.466003643435 2.43938553054 255 255 255
-0.970206920586 -0.0538854752079 2.61188320236 255 255 255
-0.794159679094 0.240530514287 2.35954575425 255 255 255
0.266492811239 -0.567870712955 2.35435446217 255 255 255
-0.806730125617 -0.00917043659793 2.59318238942 255 255 255
-0.504883625826 -0.044275283387 2.47122237184 255 255 255
0.199091262873 -0.0468910180765 2.36316658714 255 255 255
0.993446839618 -0.232782943052 2.40486738083 255 255 255
0.469731978843 -0.561687930107 2.48419734769 255 255 255
-0.0896827767687 -0.479397759243 2.39776090522 255 255 255
0.799293741218 0.399700701997 2.39040872323 255 255 255
-0.496040610346 0.2399975869 2.32670092687 255 255 255
-1.11678897122 -0.618007880447 2.65678651699 255 255 255
-0.389841865082 0.222906959872 2.31534820249 255 255 255
-0.771645296233 0.139261749942 2.40388154455 255 255 255
0.702303567981 -0.4623314434 2.45127538517 255 255 255
-0.997042535317 -0.322516658422 2.63473475684 255 255 255
0.879783593449 0.0662848466914 2.39637164018 255 255 255
0.736254769988 -0.582600168708 2.45558265594 255 255 255
0.180668375967 -0.268993913471 2.41446229326 255 255 255
0.837229340138 0.314283305108 2.39052478697 255 255 255
-0.432565049052 0.51273382192 1.78501457042 255 255 255
0.760835404021 -0.675403444494 2.45733132558 255 255 255
-1.16742249847 -0.328042686728 2.64755502912 255 255 255
0.873629651665 -0.871444195133 2.45968499041 255 255 255
0.307597553284 -0.849700335677 2.52007900879 255 255 255
-0.548795552227 -0.673169552663 2.60123337304 255 255 255
-0.279224798522 -0.302812199997 2.39759196356 255 255 255
0.389481227601 0.130307187601 2.29584630149 255 255 255
-1.18509129951 -0.217586273032 2.64789389059 255 255 255
-1.24879830622 -0.171974190829 2.65549394511 255 255 255
0.679840111884 0.136889696088 2.42744117227 255 255 255
-0.883463172501 -0.225642106773 2.61596572312 255 255 255
-1.17105728205 0.538311098039 2.56025293766 255 255 255
-0.35200625955 0.422709057786 1.80581424531 255 255 255
1.06021229027 0.0996211123906 2.38377984206 255 255 255
0.59182902281 -0.329607008384 2.45565010785 255 255 255
-0.650440616889 -0.461414261129 2.60261585059 255 255 255
-0.091442121627 -0.0319124022235 2.34614963496 255 255 255
0.475316616469 -0.576676576994 2.48683651506 255 255 255
0.713387239466 0.27761902365 2.41101380127 255 255 255
0.596344046889 -0.60643139031 2.47594470484 255 255 255
0.202851984677 0.187505725553 2.2513617926 255 255 255
-0.316261429678 -0.633365993784 2.3933633815 255 255 255
0.98538277405 0.384661431113 2.37273766549 255 255 255
1.07208187897 -0.132482608067 2.39037403272 255 255 255
0.397561705682 -0.442839307532 2.48664580307 255 255 255
0.851811482279 -0.0692765032469 2.41302348461 255 255 255
-0.382994026969 0.140381178256 2.37380301049 255 255 255
-1.18444106972 -0.514749575043 2.67206790438 255 255 255
0.696070686774 -0.157146664787 2.43447786368 255 255 255
-1.2259710889 -0.537686108862 2.66492325182 255 255 255
-0.680096157135 -0.42713202149 2.60913684119 255 255 255
-0.467609405557 -0.612728453694 2.59273604531 255 255 255
-0.962256444442 0.103643623319 2.5991484103 255 255 255
0.993850906341 0.523910471684 2.31928035039 255 255 255
0.990303792346 -0.251005277158 2.40594993658 255 255 255
0.804999069387 -0.797441956126 2.46014669977 255 255 255
0.416941084676 -0.840707180718 2.50752660935 255 255 255
0.605371215653 0.0612820980106 2.4344318226 255 255 255
0.403992725368 -0.461164716528 2.48563184288 255 255 255
-0.858364520458 -0.525058719394 2.62702684164 255 255 255
-1.24196756879 -0.615700913349 2.67424116062 255 255 255
-0.0232860093779 0.209013757395 2.27579346173 255 255 255
0.931644313941 -0.286309233215 2.43979060304 255 255 255
-0.0173537161403 0.199875866756 2.27589590269 255 255 255
-0.679862474339 -0.015635804828 2.48442939783 255 255 255
-0.303109666037 0.0612014913792 2.39816008268 255 255 255
-0.917046412523 -0.543033228563 2.62971253003 255 255 255
1.0074681632 0.043356320751 2.38723230783 255 255 255
0.61008955592 -0.732419927574 2.48352496122 255 255 255
0.138613651612 -0.53726201731 2.39301626785 255 255 255
0.236550812741 0.196974999673 2.24620577388 255 255 255
1.07170954107 0.0721270880019 2.38124688551 255 255 255
0.949309622302 -0.131458039957 2.40370401062 255 255 255
0.896368075785 -0.674386579136 2.44037155391 255 255 255
-0.76687685152 0.126130850786 2.42240558049 255 255 255
-0.0165605473954 0.239370988433 2.27259623446 255 255 255
0.853836866122 -0.664794413692 2.44962967473 255 255 255
-0.836201400875 -0.471283965764 2.61861412353 255 255 255
-1.22975931928 -0.553919350541 2.66819808549 255 255 255
-0.479976751692 -0.283357935509 2.48665112685 255 255 255
-1.14878422788 -0.309067690787 2.64681382481 255 255 255
0.8187834829 -0.0486971912115 2.41434192288 255 255 255
-1.14328596711 -0.668679134452 2.6700154192 255 255 255
-1.04783913918 0.0325231423016 2.62924807061 255 255 255
-0.638377400324 -0.730547240965 2.62428052733 255 255 255
0.706635244834 -0.802395867791 2.46811110325 255 255 255
-0.769976627962 0.0475706759899 2.58750381402 255 255 255
0.28631792577 0.206733511416 2.24188131298 255 255 255
-0.7914570233 0.0309688126688 2.58844696 255 255 255
1.01188457288 -0.132118861243 2.39250608539 255 255 255
-0.993299678394 -0.412278910481 2.64045385199 255 255 255
0.187920257981 -0.0363965218872 2.37906566084 255 255 255
0.909534963618 0.420406117357 2.37930072382 255 255 255
0.0358863937776 0.472942530477 1.73575637633 255 255 255
-0.57962956345 -0.134125598174 2.47183603362 255 255 255
0.0159656580612 -0.633755727074 2.35286885475 255 255 255
-0.291402403466 -0.0429204331556 2.40151854198 255 255 255
0.874145403561 -0.675508371913 2.44822474154 255 255 255
-0.561087802149 -0.680478814834 2.60359798655 255 255 255
-1.21691714943 0.1556572668 2.62324839733 255 255 255
1.03584619576 -0.846597118532 2.44103021639 255 255 255
-1.15863848304 0.407838075354 2.611312171 255 255 255
-0.160054449584 -0.0383931424751 2.31507473916 255 255 255
0.646328968437 -0.711599808356 2.47382324657 255 255 255
-0.269159664892 0.0473506380068 2.39748876961 255 255 255
0.488036414177 -0.450460533612 2.4743480525 255 255 255
0.826656973623 0.0150801071321 2.41524407689 255 255 255
0.914037973205 0.474104760522 2.37116389797 255 255 255
0.11318645285 0.197422166353 2.26302484628 255 255 255
0.762540890292 -0.210661202093 2.42745677414 255 255 255
0.909204719232 -0.630447846449 2.43271284499 255 255 255
0.209779435085 0.320351421705 1.90337959331 255 255 255
0.923362233981 0.0951178648455 2.3914404778 255 255 255
0.430360274155 -0.499132615068 2.48122254998 255 255 255
0.508141334125 0.505090805575 2.16114373325 255 255 255
0.997029105714 -0.6820957521 2.43075759786 255 255 255
-0.340831248091 -0.500111554955 2.38497032635 255 255 255
-0.89024930666 -0.689492352362 2.64852699605 255 255 255
-0.681906569695 -0.309103647701 2.60177700062 255 255 255
1.01090148944 0.0317042985325 2.38647806701 255 255 255
0.277818515134 -0.274642721652 2.39327955716 255 255 255
0.788929955786 0.20619809279 2.41177752664 255 255 255
-0.570289545946 -0.770936297811 2.61322141231 255 255 255
-0.908747729633 0.289304927296 2.58872599241 255 255 255
0.382365624851 -0.794075634509 2.50416348594 255 255 255
0.367210791181 -0.425575596294 2.48675384258 255 255 255
-0.709677118478 0.198170194002 2.35221710173 255 255 255
-0.422824230537 -0.146152346978 2.47786311299 255 255 255
0.647643807816 0.129781610198 2.42712199363 255 255 255
-0.572023926266 -0.730523415575 2.6131798572 255 255 255
0.647835360114 -0.0596898606654 2.43347991625 255 255 255
-0.958955916589 -0.539637774275 2.64311578378 255 255 255
0.695545087688 -0.829660162466 2.46067867347 255 255 255
0.0266487907384 -0.484706783023 2.34108925688 255 255 255
-0.472965058882 -0.201025627757 2.46160333823 255 255 255
-0.629750952814 -0.438180543499 2.59103009147 255 255 255
0.63890934774 -0.422235484331 2.46241912159 255 255 255
-1.09935420284 -0.353842274737 2.64029820874 255 255 255
0.918779547212 0.516786802554 2.32853744032 255 255 255
0.426599724463 -0.343788232792 2.4725534277 255 255 255
-0.709762310834 -0.361707475886 2.60130118504 255 255 255
-0.0524150100262 0.263578146486 2.26510527132 255 255 255
-1.08592811283 -0.540906271288 2.65101058978 255 255 255
-0.802920699732 0.123276900977 2.58445970368 255 255 255
-0.0633561669772 -0.034292855629 2.37424057132 255 255 255
-0.746964893406 -0.249422840501 2.59250749415 255 255 255
0.876000426074 -0.294472981159 2.42456706835 255 255 255
0.90028475869 0.0383018450728 2.39843451311 255 255 255
0.639067799838 -0.200880907296 2.44089275285 255 255 255
-0.968314810886 -0.368470331738 2.6290733976 255 255 255
0.180261571661 -0.429587800506 2.40161016742 255 255 255
-0.6903320297 -0.512084525398 2.60128446044 255 255 255
-0.920329170416 -0.461628441461 2.62951676282 255 255 255
0.383402159411 -0.224093316069 2.314237529 255 255 255
0.764854395868 0.046127399646 2.412650468 255 255 255
0.55140801509 -0.84799660091 2.49179706881 255 255 255
-1.06831469258 -0.00460677846831 2.61946002442 255 255 255
0.907523189933 0.208225155819 2.39263491661 255 255 255
-0.718796494611 0.0279585808383 2.45733965997 255 255 255
1.00536354899 -0.252708970411 2.40502022543 255 255 255
-1.15580601008 -0.693269376649 2.66853792104 255 255 255
-0.937240471689 -0.6083524244 2.64426489602 255 255 255
0.810161601077 -0.476623675886 2.43987518872 255 255 255
-0.186628918325 -0.157464195572 2.37088567159 255 255 255
-0.866937925595 -0.475176444459 2.62510236884 255 255 255
-0.107353090614 -0.179325866748 2.40071723166 255 255 255
-0.657084382477 -0.282019893387 2.59454661803 255 255 255
-0.586102774227 0.404971842024 1.93597907697 255 255 255
-0.374692806946 0.385317737891 1.80877159351 255 255 255
0.551459008772 -0.554568280437 2.47535939087 255 255 255
-0.960318640996 0.125377420343 2.60253899151 255 255 255
0.607702666671 -0.713141353521 2.47239623175 255 255 255
0.586762259819 -0.03878305544 2.43775587172 255 255 255
-0.464005815764 -0.165249690005 2.48455872309 255 255 255
0.861042739472 0.263065475079 2.38965740453 255 255 255
-0.497610831414 -0.696044908908 2.59473030432 255 255 255
0.45506290753 0.0255429000717 2.34782407946 255 255 255
0.827372531962 -0.44906116388 2.4400615191 255 255 255
-0.874271713616 -0.526531664569 2.62861403609 255 255 255
-1.24037588613 0.37801054192 2.61956780648 255 255 255
0.811043102727 -0.493578466324 2.44011796964 255 255 255
0.0691927097019 0.0198998648999 2.35826649683 255 255 255
-0.301969444953 -0.0667222135343 2.40096124511 255 255 255
0.978889438764 -0.383580313956 2.41570142252 255 255 255
-0.469956792596 -0.327971395674 2.46754477295 255 255 255
-1.02708891436 0.544227130487 2.47398475701 255 255 255
0.43200376065 0.0180694522629 2.35977967113 255 255 255
-1.05873351505 0.0142180081819 2.62126278816 255 255 255
-0.834998057785 0.142616596512 2.58929443513 255 255 255
0.397602243551 -0.632016155902 2.49692253323 255 255 255
-0.637076739473 0.156086190519 2.42763471911 255 255 255
0.452567595037 -0.303825789707 2.46751777634 255 255 255
0.60117014388 0.0730645906336 2.43144375581 255 255 255
0.554732795348 -0.294153627637 2.45970055826 255 255 255
-1.03560151199 -0.190035185689 2.63025749382 255 255 255
0.339937638136 -0.147595726407 2.35421622049 255 255 255
0.8765073939 0.3758358391 2.37532711664 255 255 255
0.999464551424 0.421908902425 2.36873802276 255 255 255
-0.757101025586 -0.340392173006 2.61281568076 255 255 255
0.895166828732 -0.0439666941983 2.40527221799 255 255 255
-0.151927707729 -0.311211539921 2.44163966861 255 255 255
-0.757233142926 -0.682240769271 2.63057693334 255 255 255
-0.700694553804 -0.401749999757 2.60493313566 255 255 255
-0.941615695641 -0.0994690966922 2.61269208316 255 255 255
1.08578945946 0.00904984635768 2.37705015848 255 255 255
-1.10972704541 -0.0605120688154 2.63076483084 255 255 255
0.888783973817 0.322654737591 2.38728124298 255 255 255
1.05012890558 -0.289849677775 2.40014600559 255 255 255
-1.21429583327 -0.20145997721 2.64608720006 255 255 255
-0.471684116462 -0.319004367012 2.46077583347 255 255 255
0.643519811839 0.149198718987 2.42290954425 255 255 255
0.643082174803 0.105250655378 2.42688303682 255 255 255
-0.800082688613 -0.607149333558 2.62682529165 255 255 255
0.57336679221 -0.55412252213 2.47190252049 255 255 255
-0.815942659056 0.0145385864367 2.59384524202 255 255 255
-0.634523708304 -0.0901369946465 2.45094031401 255 255 255
0.679092317448 -0.522638770497 2.45829643854 255 255 255
-0.931803469543 -0.158078427534 2.61323699273 255 255 255
-1.05305914614 0.0207410039632 2.62115244067 255 255 255
1.02053224991 0.303043906097 2.37373825181 255 255 255
0.448620135265 -0.734733332612 2.49708595966 255 255 255
-0.963433556782 -0.0161126217512 2.58673223763 255 255 255
-1.01583624055 -0.359481124029 2.63160048553 255 255 255
-1.22101699501 0.116747000668 2.6290298162 255 255 255
0.344293034398 -0.747247486987 2.51023740768 255 255 255
-0.492919750854 -0.609064281072 2.59592663489 255 255 255
0.982284373736 0.239278065894 2.38067820945 255 255 255
-1.03897606221 -0.467067255797 2.64733240345 255 255 255
0.334611406721 0.189491298013 2.23462668111 255 255 255
0.813531737021 -0.448446367526 2.4406298932 255 255 255
-1.23633553953 -0.5244786839 2.66818923866 255 255 255
-0.903170280148 -0.378741230279 2.62716343088 255 255 255
-0.88711859827 0.0162026413035 2.60155027211 255 255 255
-1.1564996821 -0.603224475047 2.66477986692 255 255 255
0.868439713707 0.255029799361 2.39046200658 255 255 255
-1.00710550689 0.20863121001 2.59841349949 255 255 255
-0.560734407808 -0.147045490044 2.48074458785 255 255 255
0.856799433315 0.0427448499563 2.40345307187 255 255 255
-0.500884631647 0.232622311761 2.32817313325 255 255 255
-0.70694261125 -0.379095563895 2.59819160839 255 255 255
-0.240608465262 0.372037843678 1.79615541865 255 255 255
0.186360073987 -0.303457918828 2.41071539397 255 255 255
0.76437815627 -0.111710538609 2.42978934217 255 255 255
0.944559414143 0.524032914718 2.32285695752 255 255 255
0.848680498365 -0.16029102791 2.41653393114 255 255 255
0.633283927983 0.123335941383 2.42744577074 255 255 255
-0.747500064392 0.10181509565 2.44024888362 255 255 255
0.308411923635 -0.229135848796 2.38711606258 255 255 255
0.850051313795 0.270527284199 2.39836582003 255 255 255
-1.1615696422 -0.318919014002 2.63870555398 255 255 255
-0.912660276816 -0.340317911392 2.62976140322 255 255 255
0.794283443292 -0.450433602595 2.43724805383 255 255 255
0.953711625299 -0.0247044480883 2.3976983016 255 255 255
-0.371182438438 0.325137732734 1.81170719128 255 255 255
1.11134812124 0.483576602402 2.34925062638 255 255 255
-0.701949204491 -0.360522072532 2.60125477245 255 255 255
0.871167853378 -0.0766581706619 2.40537985934 255 255 255
0.82286578961 0.0564582694287 2.40881895993 255 255 255
0.647123267309 -0.385544537155 2.45619054121 255 255 255
1.02903483746 0.26186434255 2.37042078538 255 255 255
0.0382650368147 -0.075247432605 2.36554804929 255 255 255
1.00379897473 -0.147757097695 2.40106399359 255 255 255
-0.101618427889 -0.145025332506 2.38993154029 255 255 255
0.0272623818769 0.477926448326 1.73645318372 255 255 255
0.713186396507 -0.114127902729 2.43087103508 255 255 255
-0.111177021025 0.422978830168 1.77962634357 255 255 255
0.291867472806 -0.634364717154 2.5085953833 255 255 255
0.679237979698 -0.897011437723 2.48206506761 255 255 255
-1.26139816262 -0.54676575623 2.67861694655 255 255 255
0.251101593192 -0.860571650211 2.52561759862 255 255 255
-1.07773960204 -0.302898545208 2.63547800684 255 255 255
-1.15817931496 -0.284033586618 2.64578057911 255 255 255
1.09003070123 0.58614508777 2.29939295279 255 255 255
0.0537774425011 0.0947754253514 2.3567117526 255 255 255
-1.24755891448 0.135074031417 2.63124350955 255 255 255
0.730334813326 0.342288504412 2.40350078717 255 255 255
0.472338600716 -0.497380562646 2.47637376063 255 255 255
-1.08509263695 -0.211908928951 2.63457759254 255 255 255
-0.00225413169273 0.0926590134612 2.36153586799 255 255 255
0.544157130377 -0.258504816695 2.45285584723 255 255 255
-0.482165124787 -0.711720625329 2.59891048988 255 255 255
1.05264456469 -0.58193179412 2.41696083408 255 255 255
0.893815997454 -0.477990993831 2.43658383445 255 255 255
