ply
format ascii 1.0
element vertex 852
property float x
property float y
property float z
property uchar red
property uchar green
property uchar blue
end_header
-0.179872560427 -1.09884924886 4.85178001754 255 255 255
1.78340597806 -1.69554187912 5.37656333382 255 255 255
0.162138832205 0.713845385928 4.92694213931 255 255 255
-1.00122047174 -0.235372935464 4.49478326473 255 255 255
0.643780146546 -0.139107029648 5.05048935874 255 255 255
-0.460200455508 -0.235393801998 4.60136809855 255 255 255
0.367526843679 -0.774070721847 4.89810637352 255 255 255
1.9233255513 -1.45818820039 5.38211846177 255 255 255
0.840615226758 -0.377907375288 4.93126890663 255 255 255
0.255086862156 -1.52144434614 5.06813515401 255 255 255
-0.0816988027027 -1.01730466647 4.84009502545 255 255 255
-0.274308590663 -0.734938038903 4.72248067207 255 255 255
2.8364531644 0.24883952493 5.11146230895 255 255 255
0.796934608909 -1.3421984396 5.09662035695 255 255 255
-0.744757372386 0.0607157992005 4.47679250899 255 255 255
-0.712829305054 0.0402072119164 4.48710164211 255 255 255
0.728386885112 -0.874723361294 4.98177551137 255 255 255
0.0931444415476 0.0239912708208 5.08006768268 255 255 255
0.314776938497 -0.768072412175 4.8906126105 255 255 255
0.852118743397 -0.524254407608 4.91491940439 255 255 255
0.885733618682 -1.41098840604 5.13471570528 255 255 255
0.22538666917 -1.15212589496 4.92539178455 255 255 255
1.46792640443 -0.872690184046 5.11895627681 255 255 255
-0.585635949655 0.490204942965 4.40937611099 255 255 255
0.247728058055 -1.10131101455 4.9197412632 255 255 255
-1.16754410237 -0.657195311239 4.56011977633 255 255 255
2.62395660328 -1.5851652633 5.55609771205 255 255 255
2.13860103323 -1.02487436604 5.25920891863 255 255 255
0.973241721169 -1.21800974478 5.11253517927 255 255 255
-1.12000056714 0.960877397956 4.16125146773 255 255 255
0.0254445716959 -1.53570360935 4.98909342258 255 255 255
2.15140316684 -1.64197053887 5.45127851543 255 255 255
0.896970025199 -0.421693065834 4.90708421672 255 255 255
2.39910569697 -1.63010752954 5.5007797671 255 255 255
2.66972108146 -1.66397210491 5.54305133612 255 255 255
-1.5894725339 -0.777899333102 4.50581363979 255 255 255
1.78189400468 -0.130903976506 5.00067811282 255 255 255
0.823172178734 -0.765294853834 4.96923684477 255 255 255
-0.108058999614 -0.782599079378 4.79451388197 255 255 255
0.517990385222 -1.42466243295 5.06089519344 255 255 255
1.930627622 -1.68675959544 5.40196589453 255 255 255
1.09627851035 -0.588047036355 4.97961816245 255 255 255
1.8704960047 -1.05769742664 5.21325316933 255 255 255
0.766185400831 -0.657582102523 4.92629848386 255 255 255
-2.07799285711 0.130402086043 4.97488132073 255 255 255
-0.113225012291 -0.0254287804103 5.04134104776 255 255 255
0.586508009507 0.624211986079 4.9812056573 255 255 255
1.18521533883 -0.31048363237 4.9277431068 255 255 255
2.18859244676 -1.37853781891 5.44501529663 255 255 255
-0.836167198705 -0.077445674052 4.48929384572 255 255 255
-0.855134407041 -0.453415814235 4.57376576875 255 255 255
-0.906809199231 -0.692734943423 4.6223506991 255 255 255
0.440627298659 -1.50688216158 5.0372647915 255 255 255
2.14536510538 -0.863842963602 5.22991564763 255 255 255
-0.842090272142 0.90038581486 4.23364066776 255 255 255
-0.83059926172 1.01713874238 4.2028064167 255 255 255
1.06601363149 -0.472309455601 4.93936356377 255 255 255
-0.682216911352 -0.0730461127284 4.51786866483 255 255 255
0.535695082598 1.03895416031 4.26069633022 255 255 255
1.36015540151 -0.0362423358323 4.90663587093 255 255 255
0.19575185759 -1.33630515421 4.99847060538 255 255 255
0.964305821185 -1.21098256146 5.11083579476 255 255 255
1.21924717223 -1.54466817498 5.23334536084 255 255 255
2.74972734509 -0.753018975648 5.33414041402 255 255 255
0.836953670414 -1.45237603847 5.1287145936 255 255 255
2.25653908063 -0.631890602064 5.20106333879 255 255 255
1.42413435429 -1.10730940459 5.16419504661 255 255 255
2.59709820246 -0.672587908711 5.28757787316 255 255 255
-0.372395264157 -0.477023317093 4.67694379927 255 255 255
0.938085793793 -0.319348778416 4.88873404903 255 255 255
-0.572197945834 0.228792034042 4.44856611972 255 255 255
2.36986265727 -1.62302597043 5.49259056347 255 255 255
-1.34971385826 -0.934261863003 4.60136169403 255 255 255
2.50065390976 -0.515926349639 5.23598920144 255 255 255
0.826484190846 -1.18186273025 5.06843600019 255 255 255
-0.890207960309 -0.22198523813 4.51905233259 255 255 255
2.69366251456 -1.61305628949 5.55055904315 255 255 255
1.05663294444 0.722514804187 4.64502816508 255 255 255
0.624047883893 -0.757051829135 4.92257619848 255 255 255
1.05342723779 -0.84708256801 5.03584350119 255 255 255
0.988769149079 -0.492949724382 4.90005973649 255 255 255
-0.738636307365 -1.09854998812 4.73979966984 255 255 255
-0.857526725486 -0.452077799832 4.57290566042 255 255 255
-0.292342378299 -0.822226227593 4.7587900879 255 255 255
-0.158999703134 -0.723312195379 4.77330101176 255 255 255
0.979466289361 -0.029112828308 4.83750718065 255 255 255
0.219373009498 -1.0308650087 4.8920563456 255 255 255
0.0913361965069 -1.13532685931 4.91935201309 255 255 255
-0.785885255732 0.923362874728 4.23276405166 255 255 255
-0.574372762928 -0.246017309503 4.54255225921 255 255 255
-0.741195659808 0.941495813941 4.23208416552 255 255 255
2.0064375715 -1.63644523379 5.42847861419 255 255 255
3.35632635944 -0.819252922385 6.05633480211 255 255 255
-0.906273200948 -1.35609513003 4.76502404739 255 255 255
-1.14873363491 1.06977803076 4.13358304074 255 255 255
-0.799632045107 -1.43978865778 4.80661156653 255 255 255
1.22473005519 -0.162586450881 4.90552315932 255 255 255
-0.815939807993 0.899014692058 4.23994897458 255 255 255
-1.22468794197 0.933504470045 4.15090523823 255 255 255
0.342223063576 -1.18610067297 4.97230929637 255 255 255
-1.19534036013 1.15062490164 4.11245052017 255 255 255
1.37090228832 -0.190982888639 4.9433150691 255 255 255
-0.959706886834 0.957129031621 4.19302741446 255 255 255
1.92876201828 -1.68950583597 5.42275644287 255 255 255
-1.04850977383 0.0187029862504 4.42610769662 255 255 255
-0.863517805824 -1.13733050742 4.72086242157 255 255 255
1.07781185513 0.682851489167 4.659309334 255 255 255
-1.27880745274 -0.643682223974 4.53354465161 255 255 255
0.515707775872 -0.965860901051 4.94354845967 255 255 255
2.59182158185 -0.578193162655 5.26616813799 255 255 255
0.593167840381 -1.42033604957 5.07656491711 255 255 255
-0.630698147105 -1.17240620119 4.77901635534 255 255 255
1.73058137593 0.453238666927 4.85588625861 255 255 255
0.642528176284 -1.41670626899 5.08756079654 255 255 255
-0.42715913434 -0.971902588016 4.77219815417 255 255 255
-1.12972177734 0.983998276232 4.15952664395 255 255 255
0.534086176547 -0.0323197353198 5.16367193639 255 255 255
-1.10215009024 0.482587933474 4.31256907976 255 255 255
-0.881299150986 1.0834961487 4.18279769718 255 255 255
1.14334198323 0.686665403672 4.66844444821 255 255 255
1.6952744632 -0.111336539729 4.97129341664 255 255 255
1.254483162 -0.950412610102 5.09671925848 255 255 255
-1.84149603811 -0.842853703522 4.46633787142 255 255 255
0.940330688763 -1.11618648512 5.07349750859 255 255 255
-0.571119219329 1.01761649507 4.25362928195 255 255 255
0.0568259917727 -1.22285480215 4.92165307734 255 255 255
2.76319573975 0.303389884628 5.08786548375 255 255 255
-1.19756467016 -0.254271569613 4.47125436001 255 255 255
-0.574607867188 0.926108161519 4.27182023649 255 255 255
1.43053344687 -0.933621209582 5.13113159099 255 255 255
0.433703873491 -0.757437697421 4.90667950994 255 255 255
-1.10121585709 1.12546655978 4.13157008311 255 255 255
-0.928757539615 -0.632779930585 4.59932391356 255 255 255
0.168592522125 -1.75242910975 5.07424921873 255 255 255
1.31543432755 -0.0342051722731 4.88602125192 255 255 255
-0.815081668124 0.00138182244212 4.47727119068 255 255 255
-0.901935689905 -1.27670297322 4.75130996334 255 255 255
1.71607442878 -0.347951730059 5.0436294512 255 255 255
0.554795512129 -1.45497340258 5.08133440707 255 255 255
-1.00732247562 -1.63054160105 4.81590287065 255 255 255
1.7703528505 -1.01272565937 5.21581244964 255 255 255
-1.11687613642 0.845099918922 4.21263371302 255 255 255
1.08839963539 -0.603740175331 4.99041957447 255 255 255
0.34452693605 -1.71153825489 5.09492786734 255 255 255
2.48324853131 -1.74420208315 5.49580663068 255 255 255
0.180525939133 0.0181251578151 5.08067186247 255 255 255
2.21228353503 -1.67937533292 5.4604585754 255 255 255
1.81143814882 -1.69801634915 5.38210502704 255 255 255
-0.603083775845 -1.14449048003 4.78096820293 255 255 255
-1.17201441151 1.10028004257 4.12591491746 255 255 255
-0.486794012535 0.89729137859 4.30399698482 255 255 255
-0.599526421055 0.392932748956 4.42799900202 255 255 255
0.569724922412 1.03907995365 4.26144638608 255 255 255
-1.47792698006 -0.669218892771 4.51020136909 255 255 255
-0.152549220732 -1.16911242227 4.86712710653 255 255 255
-0.8005698165 1.10331073909 4.19394435958 255 255 255
0.979697346959 -0.799925675852 4.98233682307 255 255 255
-0.0389976183673 0.0193888101209 5.05289478257 255 255 255
0.0598427106377 -0.872231781715 4.82137440252 255 255 255
-0.931618306355 0.84674913273 4.25803622538 255 255 255
2.74904850414 0.727297198875 5.12329929287 255 255 255
0.688679592151 -1.39337512985 5.08830140991 255 255 255
-0.905350946479 -1.62390681208 4.8294230978 255 255 255
0.457888906102 -0.921901498411 4.93034847787 255 255 255
-0.47857137178 0.223953693022 4.48644101853 255 255 255
-1.09811487107 -0.413482622939 4.51775035865 255 255 255
1.21492331152 0.999396370802 4.59398568446 255 255 255
1.29827325269 -1.38489693608 5.20664722424 255 255 255
-1.2782818515 -1.08126394592 4.63162807945 255 255 255
0.754333964533 -1.13559990511 5.04281478486 255 255 255
-0.582888142175 -0.675184657507 4.67181176873 255 255 255
-0.142508951153 -0.579708292201 4.82328223466 255 255 255
-0.845173837788 -1.40309338225 4.78744676034 255 255 255
2.07110493237 -1.03352666202 5.25358447139 255 255 255
2.5136423251 -1.60726353801 5.5337078086 255 255 255
1.93402737419 -0.444401228888 5.11152202187 255 255 255
-0.750627287006 -0.498843805341 4.60249396275 255 255 255
0.983504258982 0.182049092866 4.78848624971 255 255 255
-0.857893456684 0.852913276339 4.25820592981 255 255 255
2.74495394889 -1.20282259653 5.44987353722 255 255 255
-0.376774686698 -1.31793274639 4.86735226784 255 255 255
-0.167420806368 -0.662235121489 4.76643875787 255 255 255
1.67087912497 0.146071961976 4.89745962733 255 255 255
2.32432584688 -0.602048130146 5.20009865632 255 255 255
-1.37643958407 -0.932585997374 4.58575487005 255 255 255
-0.678779858287 -1.1518421731 4.76575648427 255 255 255
0.69362805937 -1.05214182912 5.01247971308 255 255 255
-1.38073714943 -0.555997005366 4.49830509505 255 255 255
1.94195044369 -0.343439544145 5.074085166 255 255 255
2.02120601369 -1.03508746996 5.24332642006 255 255 255
-0.354756333145 -0.318878462433 4.73098499431 255 255 255
0.37110008763 1.03145487527 4.22547817756 255 255 255
-1.04562739272 -0.659801254489 4.58281908111 255 255 255
-0.639225648197 -0.224442158648 4.56295432835 255 255 255
0.791673291332 0.147349133263 4.92814697932 255 255 255
0.973687715079 -1.19938450724 5.09995836158 255 255 255
1.02030829125 -0.627351350274 4.97589834234 255 255 255
0.656109224923 -1.174787568 5.03224110794 255 255 255
-0.134271461234 -0.91178649199 4.80889594302 255 255 255
-1.47481819895 -0.408532008785 4.45001422052 255 255 255
0.969385489678 -0.437352457672 4.91615387497 255 255 255
1.01628639229 0.389175498504 4.72331663426 255 255 255
-1.17961015648 -1.22835427447 4.68264808196 255 255 255
0.628630938504 -0.824687737714 4.91499296614 255 255 255
2.82287572882 -1.31120997019 5.48104426445 255 255 255
-0.664176793191 -1.22992391855 4.78709796778 255 255 255
-1.16711122902 -0.490056682108 4.51875016316 255 255 255
1.11090251895 -0.0129870687013 4.82107796799 255 255 255
-0.987238768425 -0.36558478909 4.52322758123 255 255 255
2.14015287429 -1.01640693861 5.26920269304 255 255 255
-0.689212434846 0.763041989949 4.3237723327 255 255 255
2.32700981726 -1.65588035498 5.48027752985 255 255 255
2.00622828203 -0.888425324179 5.23051467499 255 255 255
-1.54888382289 -0.590326419955 4.44932907184 255 255 255
2.42519778905 -1.65162996032 5.50097271404 255 255 255
-0.735038977095 -0.711396248342 4.65154178692 255 255 255
0.218502188896 0.00310178037291 5.096617736 255 255 255
2.20443346841 -0.724798756623 5.22977153013 255 255 255
0.960684579811 -0.0040458322929 4.84525780602 255 255 255
1.62585268931 0.170186362279 4.90120673764 255 255 255
1.96719074783 -1.6922025034 5.41708933723 255 255 255
2.68445365013 -1.27626489437 5.48934201458 255 255 255
-0.981902933228 0.824429668097 4.25858796026 255 255 255
-0.536835379154 -1.61372772236 4.90113048061 255 255 255
-0.725503629871 -0.104618984996 4.52198006864 255 255 255
1.5780842403 0.51310360135 4.81139245622 255 255 255
-0.420736310389 -0.380876634231 4.64356533517 255 255 255
-0.990653738976 -0.513907557597 4.55857463962 255 255 255
1.04029944986 0.34594827951 4.73510266988 255 255 255
1.43120135344 -1.67936695107 5.29658380485 255 255 255
0.183255489483 -0.81751117805 4.86032778664 255 255 255
1.74984142586 -1.05925098326 5.18808887695 255 255 255
-0.447894707721 0.952894503425 4.29046630985 255 255 255
0.886257183627 -1.4101482992 5.13130299827 255 255 255
-1.2666409615 -1.34800425561 4.70137136085 255 255 255
-0.935377785516 0.748504020216 4.28171695732 255 255 255
2.30185774836 0.287874312267 5.75774589767 255 255 255
1.92480462823 -1.4102751463 5.39175537642 255 255 255
-0.791739755622 -0.827177972759 4.66448226666 255 255 255
1.14134745699 1.05962705182 4.5699251061 255 255 255
-0.707268120247 0.0840804943167 4.47844818075 255 255 255
-0.79683806548 -1.28416259719 4.77678252174 255 255 255
2.43476706936 -1.38147159619 5.48033948568 255 255 255
2.68281915553 -0.262752599314 5.17868962039 255 255 255
0.79328190229 -0.914705816692 4.99290011568 255 255 255
-1.0194871734 -0.158673400032 4.4761531561 255 255 255
-0.250804865931 -0.613828389678 4.73139805017 255 255 255
1.08998717594 -0.164393748127 4.8509836703 255 255 255
0.907635338421 -0.385671143192 4.89792006579 255 255 255
-1.14733920623 0.879398387803 4.19480182718 255 255 255
1.35788653258 -1.41555356534 5.2220964894 255 255 255
2.54282347502 -1.60996103276 5.52368450864 255 255 255
-0.857943755221 1.06248207656 4.18655334017 255 255 255
-1.15767254443 1.1277866082 4.11557885254 255 255 255
-1.15506665053 -0.183929032162 4.45310826345 255 255 255
1.00501476644 0.138012970304 4.79978503368 255 255 255
-1.16078259283 0.302952294191 4.34283231783 255 255 255
0.648626595292 -1.71992818231 5.15643360436 255 255 255
1.47199685385 -0.033591136208 4.93807445342 255 255 255
0.605614036737 -1.61370017526 5.12496887195 255 255 255
2.80434527402 -0.0165276856049 5.15492686536 255 255 255
-0.794716903591 -1.50386109786 4.82757609941 255 255 255
1.08298024305 -0.213677238083 4.86156626941 255 255 255
2.39783909601 -0.996669101418 5.31157284126 255 255 255
-1.45290498465 -0.746258152983 4.52840362705 255 255 255
0.805192404672 -1.2447801349 5.07661096567 255 255 255
0.326645686551 -0.0142570652148 5.11528881433 255 255 255
-0.389668570032 -0.198066373233 4.69474860469 255 255 255
0.15562954723 -0.369076267032 5.13788296288 255 255 255
-0.0640361381785 -1.16785147667 4.86949567911 255 255 255
0.501780474459 -0.734649678348 4.91381435461 255 255 255
-1.22943691572 0.976524713821 4.13775938649 255 255 255
0.843216473704 -0.834234302608 4.99248004882 255 255 255
0.473378832168 -1.34183092791 5.01978183918 255 255 255
0.727664053418 -1.25835813306 5.06440262663 255 255 255
1.25729783879 -0.206111931113 4.91539696778 255 255 255
1.24844068364 -1.53075911502 5.23341313579 255 255 255
2.16508563998 -1.68157952543 5.4509859748 255 255 255
-0.258158015261 -0.594769029022 4.72823351274 255 255 255
0.76068752385 0.0936585928212 4.90900899262 255 255 255
-1.85687572557 -0.973384011946 4.4943364286 255 255 255
-0.482561183543 -1.30721360983 4.8427235097 255 255 255
0.463297743526 -1.3195637453 5.01884253043 255 255 255
-1.186739201 0.916582095742 4.16736177768 255 255 255
0.990052142957 0.567060799669 4.70246201408 255 255 255
0.946265318592 -1.25973828536 5.10444385792 255 255 255
-1.09655269436 -0.511936284702 4.53973234423 255 255 255
0.834194390634 -1.45034974607 5.12487041847 255 255 255
1.26592324519 0.873524220235 4.58232322133 255 255 255
1.47839864459 -1.4033909808 5.24975608387 255 255 255
1.69793280881 0.12560742975 4.92005520485 255 255 255
1.29623944026 -0.00210333000139 4.87040841762 255 255 255
1.10834132906 -1.27251703896 5.14786272686 255 255 255
1.38577112795 0.0659321887332 4.8865397319 255 255 255
0.924249489906 -1.233084291 5.0957198167 255 255 255
1.57124202157 -0.149148144531 4.99067972747 255 255 255
-0.173418568799 -0.959677490668 4.82288605627 255 255 255
1.12423025985 -1.15085519304 5.11276657365 255 255 255
2.1495617906 -1.6610199567 5.4531102492 255 255 255
-1.10944524176 1.0974922928 4.13236479256 255 255 255
1.13191389925 0.756028707337 4.68035257038 255 255 255
-1.29422150419 -0.0402589597135 4.40004128464 255 255 255
-0.820918555645 -1.27311186883 4.76613321536 255 255 255
-0.566735434907 -0.633803235612 4.66764696798 255 255 255
0.340657378781 -1.35061775823 5.04992238941 255 255 255
0.89413228448 -1.05627087853 5.04817582398 255 255 255
0.1289421735 -0.900487303318 4.84235346185 255 255 255
-0.515815649804 0.0873278399276 4.51269608205 255 255 255
-0.542334265438 -0.0446996565409 4.51899708324 255 255 255
0.711066261792 -0.540288191685 4.94085496946 255 255 255
0.44939853706 -1.39343005939 5.00621984096 255 255 255
1.86201092444 -0.527745831845 5.11168479777 255 255 255
1.90791043586 -1.65309384436 5.40887917158 255 255 255
-0.804639147249 -1.14551664535 4.73980410938 255 255 255
1.0279221364 0.453370925504 4.71632014075 255 255 255
1.35462491889 -1.57716974898 5.26481482224 255 255 255
0.369579974361 -0.794376414531 4.89406951255 255 255 255
0.698097196154 1.06500055457 4.28095024394 255 255 255
-0.565749972294 0.152169663093 4.48702821097 255 255 255
-0.694523714186 -1.26927972306 4.78858339667 255 255 255
0.315085943909 -0.824780970699 4.88891294451 255 255 255
0.896831397094 -1.20791051513 5.08797455866 255 255 255
2.7295556875 0.122753521273 5.14508208974 255 255 255
0.104091390169 -0.4084597595 5.11847773714 255 255 255
-0.753550971529 0.436015362577 4.39026224735 255 255 255
0.214549859106 -1.49968303926 5.05572424047 255 255 255
-0.599845416837 -0.664839151541 4.66770890566 255 255 255
-1.13107447905 1.04374402518 4.14113139732 255 255 255
1.02603863554 -0.380842695339 4.89007316672 255 255 255
0.895329917742 -1.62101057165 5.18510017158 255 255 255
-0.117493157988 -1.40212771553 4.93212768178 255 255 255
0.801915528081 -0.583380587163 4.91437898861 255 255 255
0.997161983077 0.379268614979 4.73162165149 255 255 255
2.10547733033 -0.898622772622 5.25130903965 255 255 255
1.30200354668 -1.82245490689 5.28493917401 255 255 255
1.35777419936 -0.739672391748 5.05909571873 255 255 255
-1.57466641016 -0.676465466853 4.48799824515 255 255 255
0.0398769346231 -1.54053980259 4.98888590821 255 255 255
-0.00708850429758 -0.514752866967 4.93631723657 255 255 255
1.12788967398 -1.87249993681 5.29378733345 255 255 255
-1.04474860955 -0.631595839875 4.57888058912 255 255 255
1.22827745214 -1.22213348911 5.14987983836 255 255 255
0.859861166882 -1.61581048358 5.17427134918 255 255 255
1.25594206167 -1.66353534878 5.26519719477 255 255 255
0.659360345179 -1.72389396439 5.15642809025 255 255 255
1.04730205526 0.377918070775 4.71609089768 255 255 255
0.246620324172 -1.1545927868 4.91918793254 255 255 255
-0.592380133241 0.603208827076 4.36880448251 255 255 255
1.3990011304 0.436983319147 4.80117481578 255 255 255
1.05513843204 -1.29656892852 5.1412610779 255 255 255
0.563662575692 -0.0900632867783 5.14231967516 255 255 255
0.136812300261 -1.08381323686 4.9101611226 255 255 255
1.03122288306 0.655099214352 4.66082499808 255 255 255
1.15053671661 0.430771923658 4.75039523007 255 255 255
-0.598286330427 -1.19644801837 4.79055580079 255 255 255
-1.44695562095 -1.01037260587 4.59143951 255 255 255
1.5250515728 -1.43102207399 5.27278431726 255 255 255
-1.03052693213 -0.606721914099 4.57768619895 255 255 255
2.02724847874 -0.511815451212 5.13673280053 255 255 255
1.92777087732 -1.64386670302 5.412159508 255 255 255
-2.0057749078 0.0224940822688 4.97300535974 255 255 255
-0.738542386562 -1.33225576664 4.79283217356 255 255 255
-0.922895495422 -0.637026986152 4.59891440457 255 255 255
0.943889266075 -1.2278452156 5.09953671612 255 255 255
0.573121851545 1.07114946925 4.25554139133 255 255 255
0.0077613597322 -0.560708177685 4.93421711686 255 255 255
0.463950212236 1.0115420347 4.34145558409 255 255 255
0.834981661283 0.971255373319 4.63734952439 255 255 255
0.386512257161 -0.754853090415 4.89638847463 255 255 255
0.842138118157 -1.35377775525 5.10757174102 255 255 255
0.579091837052 -0.72495216064 4.91592946566 255 255 255
-0.315023536813 -1.09345733442 4.82355572125 255 255 255
-0.0164660200125 -0.418106702865 4.9936452011 255 255 255
-0.95431437173 -1.13619285337 4.71053294337 255 255 255
0.738990124853 -1.21749930705 5.05787661478 255 255 255
-1.41885302377 -0.64953418189 4.50985017726 255 255 255
-0.302357487182 -0.677872500486 4.73381793553 255 255 255
-0.496792451021 -0.705971325396 4.6992567834 255 255 255
1.44257093853 0.154429863975 4.87524534667 255 255 255
0.966678084138 0.556169939857 4.71944099017 255 255 255
-1.39261837107 -0.918640870306 4.57728046123 255 255 255
-0.792288065294 0.853340032172 4.27398837117 255 255 255
-0.829817116329 -0.0200323484305 4.48015246622 255 255 255
-1.04334578577 -0.610253374858 4.57438336367 255 255 255
1.72727200768 0.364672315683 4.87988793565 255 255 255
0.755453383127 -1.06718388752 5.0301988902 255 255 255
0.907560695509 -0.912509840506 5.01760425178 255 255 255
-0.781921181385 -1.10702802916 4.73528041288 255 255 255
-0.312113050602 0.120255805909 4.73537278343 255 255 255
-0.201690478903 -0.77895281876 4.75163054723 255 255 255
-1.04537832849 1.08362075278 4.14602772988 255 255 255
-1.24188880666 1.05494031195 4.11879447478 255 255 255
1.23777463879 0.207908389051 4.82478930009 255 255 255
1.34650230529 -0.155154332397 4.91642703603 255 255 255
-1.12808624524 -0.640160731221 4.56180594971 255 255 255
-0.321117486507 -1.59570494848 4.94399591768 255 255 255
2.31427388599 -1.0188480912 5.29559511796 255 255 255
2.74213556388 0.297408854954 5.09133650174 255 255 255
0.267453646313 -1.76872553219 5.09037620497 255 255 255
1.76421358241 -0.494584369228 5.07732271153 255 255 255
-2.164889221 0.126274436075 4.96370566144 255 255 255
-1.59934527234 -0.495406757993 4.44170652661 255 255 255
2.47259100571 -0.88028201364 5.31888314745 255 255 255
-0.481302218511 -0.486986985092 4.61958147174 255 255 255
-1.00536127423 -0.383383076868 4.53223840594 255 255 255
0.143784489162 -0.593654239584 4.97037255325 255 255 255
-0.108789304991 -1.32672692335 4.91871978161 255 255 255
-1.26851921619 -0.93789340269 4.61093676492 255 255 255
-0.409086684707 0.0263018976431 4.61532470741 255 255 255
-0.673515344365 -0.248318418716 4.56399128796 255 255 255
1.36566049441 -1.10738299297 5.16206586537 255 255 255
-1.05045104219 -0.023004613602 4.43751881959 255 255 255
0.585840969214 0.541865308078 4.99892710071 255 255 255
1.43482072262 0.0110559654547 4.90263602291 255 255 255
-1.17117445023 -0.00658945248302 4.37721258843 255 255 255
0.63728198215 -1.51575049194 5.1119506033 255 255 255
2.71440149546 -1.52119076471 5.52105216118 255 255 255
0.456320927325 -0.924153122853 4.9365294811 255 255 255
-0.689720490479 -0.735023580323 4.67076671819 255 255 255
0.541571219506 -1.35526405789 5.02042001887 255 255 255
1.46879018263 -1.88304648551 5.35185311406 255 255 255
0.740252282281 -1.09213366493 5.03440612737 255 255 255
2.38886936243 -1.01535851149 5.31757711164 255 255 255
0.11711512233 -0.917194833854 4.84234153568 255 255 255
0.447084571188 1.03805756197 4.33375850406 255 255 255
-0.807855294566 0.679518680867 4.32387533845 255 255 255
-1.14996458326 1.15501910978 4.11254319018 255 255 255
0.25926629755 -1.12219083473 4.91534558979 255 255 255
0.715031425271 -1.31426670391 5.07601618011 255 255 255
0.149348505472 -0.374223711376 5.12378942917 255 255 255
-0.177435074249 -0.826544402616 4.74912537518 255 255 255
1.38764687211 -0.0968549118371 4.91782533548 255 255 255
-0.328753000052 -0.343860389387 4.7324817405 255 255 255
-0.922911888949 0.993463630807 4.19182665946 255 255 255
-0.503886472683 -1.48659538162 4.87820172709 255 255 255
-0.23630067532 -1.68099264585 4.97149695669 255 255 255
-0.687700886475 -1.35622909575 4.8095457229 255 255 255
-0.901706689578 -1.61496244096 4.82520321556 255 255 255
0.841896569657 -1.67026437521 5.18561909923 255 255 255
1.14156695277 0.596308257393 4.68376622023 255 255 255
-0.48344376125 1.01750558611 4.27092322915 255 255 255
2.55799127638 -0.252222639709 5.19235998764 255 255 255
-0.497433102461 0.542322111605 4.39356672974 255 255 255
1.0382453674 0.143204075147 4.79089201538 255 255 255
2.47736114378 -0.727724916103 5.28314811732 255 255 255
-0.875715669326 -0.507272447202 4.581890899 255 255 255
0.156400174921 -1.38636201063 5.01183461511 255 255 255
-0.446001185116 -0.290290750866 4.61768609139 255 255 255
1.6397620828 0.752125022996 4.76737061001 255 255 255
0.457732738681 -0.737762390927 4.906828158 255 255 255
0.835376864745 -0.364122684659 4.93125011507 255 255 255
-0.327384533242 -0.535647839739 4.69665360246 255 255 255
-1.11623353178 1.11398647173 4.12916420853 255 255 255
1.75553806896 0.288153842264 4.8809961063 255 255 255
-0.586351461653 0.625392571482 4.36034478125 255 255 255
-0.114739607063 -0.0462003623256 5.05040367328 255 255 255
-1.11030074254 -0.460092812387 4.52465163859 255 255 255
-0.0872793223569 -0.378947267727 4.97658662449 255 255 255
-0.628884598223 1.01800635722 4.23872173946 255 255 255
0.582772398984 0.338543504227 5.04602575573 255 255 255
-1.45545339885 -1.20379197672 4.5969965694 255 255 255
-0.995432631535 -0.641452244163 4.59669199746 255 255 255
0.0423117540507 -0.980341593674 4.86969564417 255 255 255
1.28247560179 -0.784197649909 5.08094243598 255 255 255
-0.716146963679 0.461901225433 4.38854814406 255 255 255
-0.368384130435 -0.900125555027 4.7642246262 255 255 255
-0.50888976131 0.852297107696 4.33324243448 255 255 255
1.30022510408 0.195828815094 4.83680273244 255 255 255
-1.12509044868 0.416223668598 4.32620975497 255 255 255
0.997248770013 0.378871399576 4.73073652983 255 255 255
-0.276082850937 -0.131859273662 4.86766923715 255 255 255
2.02517711621 -1.63885291497 5.42877286597 255 255 255
0.475152962995 1.07124939771 4.13998104648 255 255 255
0.543275922106 -1.61084519701 5.11370167007 255 255 255
1.0618729935 -1.38065385049 5.15746829229 255 255 255
0.889973539236 1.06919945026 4.31726957295 255 255 255
0.157591726493 -0.919093990309 4.84976746949 255 255 255
0.574093684961 0.392807077015 5.04703761389 255 255 255
0.529018951484 1.02418950786 4.35354697546 255 255 255
2.68153330399 -0.664295499142 5.30082941811 255 255 255
-1.02268985151 -0.22475168495 4.48637018104 255 255 255
0.14880629531 -0.961988428602 4.86754782088 255 255 255
1.15668345996 -0.26874446879 4.92034841554 255 255 255
2.7435812863 -0.89049157244 5.36031739433 255 255 255
1.34260253697 -0.14961605946 4.91739440797 255 255 255
-0.472529285677 -0.860775137983 4.7350674484 255 255 255
2.74064533266 -0.139894982151 5.18309971686 255 255 255
0.745785307945 -1.12543354683 5.04276395678 255 255 255
2.80277009865 -0.99797895387 5.38527873199 255 255 255
2.20204361337 -1.13542343789 5.36900431586 255 255 255
1.24375511653 -0.152413785686 4.89961354446 255 255 255
-0.561568555579 1.00225207769 4.26087243934 255 255 255
-0.98195015712 0.857052967491 4.22842390602 255 255 255
-0.592753768493 0.242748229653 4.45945962385 255 255 255
0.989204151383 0.567673688769 4.70337573869 255 255 255
-1.04733790468 0.950766564611 4.18089208829 255 255 255
-0.00770147115542 -1.45753309014 4.97033916999 255 255 255
0.752475010095 0.166325796754 4.95134917782 255 255 255
1.73175391006 -1.06273528301 5.18923529037 255 255 255
-0.952222732196 0.288273219424 4.38668723472 255 255 255
-0.825851778413 0.598391356285 4.34829878677 255 255 255
-0.292100190521 -1.30705363401 4.88088725577 255 255 255
1.02756095173 -1.01760800154 5.07791427288 255 255 255
-0.779303148772 -0.0603773273872 4.49981883265 255 255 255
1.51716779704 1.01874079599 4.64991148312 255 255 255
-0.0178734626444 -0.504832779041 4.94073308287 255 255 255
0.797338908969 -1.6542900324 5.17059653316 255 255 255
-1.34105112406 -0.0908539268496 4.41057190061 255 255 255
-0.575113866341 -0.595690637152 4.65410456098 255 255 255
1.27878577973 -0.389329033103 4.96710159427 255 255 255
-0.151716914235 -1.31397676829 4.91188002982 255 255 255
2.47906627918 -1.08604384789 5.41056863932 255 255 255
-0.128505043719 1.06013782118 4.02452365908 255 255 255
0.893323942411 -0.989807975716 5.0278478445 255 255 255
0.214353539781 -1.3975093535 5.00069703521 255 255 255
-0.311084656623 -1.60526348449 4.94834709769 255 255 255
-0.40538542487 -0.480300756686 4.66522079411 255 255 255
1.65155273397 0.0747238366399 4.91494332539 255 255 255
-0.908915813638 -0.521859165064 4.57806469496 255 255 255
-1.06957063624 -0.632412160967 4.57513109554 255 255 255
2.74520368935 -0.566040021832 5.28295753644 255 255 255
2.4300066355 -0.379237149453 5.18208671887 255 255 255
1.03216211027 0.235723418098 4.76890601192 255 255 255
1.22423063295 -1.52809264382 5.2250190363 255 255 255
-0.215780966709 -0.779310444572 4.74627685442 255 255 255
-0.0383682794524 -0.807775665056 4.81608349808 255 255 255
0.763930648256 -1.70601948551 5.17771820677 255 255 255
0.911375301665 -0.44008648063 4.91393710422 255 255 255
2.67860954938 -0.742227860878 5.32990877678 255 255 255
1.47261666252 0.914258831032 4.69490645951 255 255 255
-0.70317812337 -0.511246777901 4.6172847569 255 255 255
2.14576613412 -0.839055351175 5.2157606959 255 255 255
0.25614064967 -0.0396972997528 5.11379842556 255 255 255
-0.133151264221 -1.48651840588 4.95077841952 255 255 255
0.243629739016 -1.00784712165 4.89399722716 255 255 255
1.71263007272 -1.06247251374 5.18374659945 255 255 255
1.96342193987 -1.20188242023 5.36804556978 255 255 255
-0.465194619469 0.591631195566 4.40728403449 255 255 255
0.986007672828 1.09175996084 4.23363633507 255 255 255
2.07705238258 1.20627051762 4.74872423376 255 255 255
-1.20126255288 -1.2745148164 4.70084306821 255 255 255
0.51027517358 -0.753520440669 4.91270747782 255 255 255
-0.156257765097 -1.71968935182 4.99905749214 255 255 255
-1.06441716498 -0.582766291712 4.54801360767 255 255 255
-1.04622747473 0.963709495931 4.18136652095 255 255 255
1.9599578024 -0.597882758441 5.15794255005 255 255 255
2.77228703457 0.318181551325 5.10755236958 255 255 255
-0.698436726494 -0.0633549577363 4.5135698668 255 255 255
1.47047798555 -1.51664859956 5.27538077949 255 255 255
-0.819601617423 -1.22460339581 4.75596612403 255 255 255
1.00256349269 -0.0081967016635 4.8318856664 255 255 255
1.75221816579 -0.976328396914 5.1986767577 255 255 255
-0.75382643826 -1.03318908638 4.72568002725 255 255 255
2.50332771604 -0.537278223515 5.24118747703 255 255 255
-0.342013774375 -1.11674166723 4.82267723415 255 255 255
0.185787068395 1.05696614322 4.17545964569 255 255 255
-0.54248015736 -0.703664795209 4.68633234781 255 255 255
0.939392217218 0.128098976307 4.83049867271 255 255 255
0.101559982322 -1.75320465454 5.0551101663 255 255 255
0.191235324839 -1.76763832018 5.07764277185 255 255 255
-0.901731257609 -0.0809967892569 4.48074534853 255 255 255
-0.478998700127 -0.055329088822 4.55581318364 255 255 255
0.851855978055 0.921737707845 4.64522737966 255 255 255
-0.754082941063 1.02793418013 4.20987403973 255 255 255
0.257092343663 -1.33557761795 4.99216560856 255 255 255
-0.543702164022 -1.16017035448 4.79167026465 255 255 255
-1.20890476964 0.0247874753518 4.39173361666 255 255 255
-1.92588353215 0.632097259022 4.85056051714 255 255 255
1.13809567348 0.573186660898 4.69900751817 255 255 255
0.398205654438 -1.64440000434 5.09115406091 255 255 255
2.52654469792 -0.57680313414 5.25040077894 255 255 255
-1.26660772028 -0.720916790709 4.55663989125 255 255 255
1.76341884569 1.16612421288 4.66711839211 255 255 255
-0.353667254815 -0.5072120735 4.68500711544 255 255 255
-0.123905740999 -1.17092081558 4.88570043826 255 255 255
-0.760220106558 -1.21514271793 4.7580768333 255 255 255
0.0999113323987 -0.378473335045 5.12944946043 255 255 255
1.82713420547 -0.339482226129 5.06265800455 255 255 255
1.27946115462 -0.468708323743 4.98501257502 255 255 255
-1.30588061717 0.0884304643629 4.35005075847 255 255 255
1.64766091047 0.146897747408 4.89412568747 255 255 255
0.247032951117 -1.29829891964 4.99034654386 255 255 255
1.17701234297 -1.27158156729 5.15371275677 255 255 255
0.30776744823 -0.00541629379608 5.11301810842 255 255 255
1.27992705835 0.00306192076018 4.87813510799 255 255 255
0.38850938842 -1.33623397534 5.05663684603 255 255 255
2.39378446323 1.09336474383 5.3141226777 255 255 255
-0.392508914508 -0.446181253147 4.66206975949 255 255 255
1.11369241714 0.955988302337 4.5835513819 255 255 255
2.60156197916 0.360836520018 5.64685616025 255 255 255
0.995573507152 0.0282377953997 4.81344581847 255 255 255
1.75953721642 0.0801249052611 4.94898744791 255 255 255
-0.310853899006 -1.00332024311 4.79773777427 255 255 255
2.22465724803 -0.385357285471 5.14959829998 255 255 255
-0.7929279499 -0.240997203626 4.53018473421 255 255 255
-0.992201582007 0.749818736242 4.27109297811 255 255 255
-0.163374764577 -0.00319490193703 5.02741048822 255 255 255
-1.20392748834 0.911296078968 4.16301716652 255 255 255
-0.651953997539 -0.911967097344 4.71933887109 255 255 255
0.984415527009 1.06872741598 4.33659648056 255 255 255
1.49850320808 -1.81478277684 5.33434854315 255 255 255
-0.21583918453 1.05850996627 4.00949895502 255 255 255
-0.114329311147 -0.0468453224324 5.05275551724 255 255 255
1.23871874743 -1.00614973409 5.1095309968 255 255 255
-0.40783759217 -0.573840607972 4.67049884889 255 255 255
-0.175561665949 0.544438961383 4.89660389284 255 255 255
-1.19078168563 -0.0708709156898 4.3929102292 255 255 255
-0.235497217779 -0.764482216444 4.73800496333 255 255 255
-0.711028001982 -0.200701604981 4.54573415421 255 255 255
-0.630711278825 -0.597446775479 4.64648006005 255 255 255
2.12684439794 -1.6773739648 5.43755530271 255 255 255
-0.0818028031763 -1.28350230658 4.91027661738 255 255 255
1.8280020569 -1.64827275586 5.39126433994 255 255 255
-0.955560604754 0.924893740846 4.20125593654 255 255 255
0.590402640791 -0.743409490756 4.91650404506 255 255 255
-1.23648940425 1.13381416009 4.09941438232 255 255 255
0.0156919159349 -0.859511322912 4.82068483245 255 255 255
1.63872816305 1.18613595315 4.62751126091 255 255 255
0.524774417044 -1.59759826174 5.12048684775 255 255 255
-0.0959010177579 -0.756822000539 4.79180934726 255 255 255
-1.19718874829 0.0806078708165 4.37000597713 255 255 255
0.573629200533 -1.67138094914 5.13205004373 255 255 255
0.988777313129 0.462765420153 4.72151823306 255 255 255
2.56709210123 0.633595384047 5.58076880735 255 255 255
-0.993960370177 1.08199292276 4.16558749537 255 255 255
-1.64312301407 -0.696428302438 4.46503979983 255 255 255
-1.13883141073 1.140659759 4.12336220929 255 255 255
-0.83144176265 -0.691771075361 4.6299645999 255 255 255
2.50981219171 -0.910455954349 5.33144405711 255 255 255
-1.80363840448 -1.24124956842 4.54365559583 255 255 255
0.347865121991 -1.26223460391 5.00039447647 255 255 255
-0.0387575301133 -0.93227867594 4.80157994169 255 255 255
1.66375736958 -1.79493453002 5.34078038721 255 255 255
1.35291079232 -0.054180009375 4.9017753499 255 255 255
-0.127847777965 -0.00305138163416 5.03359703303 255 255 255
2.35247161065 -1.00158722393 5.31184628713 255 255 255
-0.452892068341 -0.273539908306 4.6160816003 255 255 255
0.747874828331 -1.20999249249 5.05564608912 255 255 255
1.02372936537 0.67101746548 4.64275564235 255 255 255
-1.22528450533 -1.55446469141 4.75377575351 255 255 255
-0.249844748115 0.994975175767 4.2129751571 255 255 255
2.24043507213 -1.11844907803 5.37876417834 255 255 255
1.91496414566 -1.02406612508 5.23574365968 255 255 255
-0.814034941467 -0.0127216228083 4.48088729777 255 255 255
-0.286548629595 -0.942665239404 4.7977384291 255 255 255
0.841211826181 -1.53385929466 5.15187549146 255 255 255
-0.240872132991 -1.10239604091 4.83910057157 255 255 255
-0.768687979424 0.955243711877 4.22707945915 255 255 255
1.42415830328 -0.635776168103 5.05071816985 255 255 255
-1.28631547874 -0.513202254311 4.50578322768 255 255 255
0.929259679781 -0.131405892894 4.88693321377 255 255 255
1.63957126557 0.933956011908 4.70077857237 255 255 255
0.37309762418 -1.59894007003 5.05659968103 255 255 255
-1.71138582294 -0.688051729387 4.46468718696 255 255 255
0.527396915372 -1.13579707764 4.97493467166 255 255 255
0.61941393546 -0.987929311029 4.98536903302 255 255 255
1.62737463016 0.775723823281 4.76080877892 255 255 255
1.5676859854 0.321585439748 4.85507836522 255 255 255
1.33924295475 -1.52200604449 5.24575830557 255 255 255
0.194863088853 -1.39580905867 5.00764409024 255 255 255
-0.406778940065 1.01354843228 4.17682479684 255 255 255
-0.457559240756 -0.0435105841583 4.56011749615 255 255 255
0.828018308911 -1.593480927 5.16980279069 255 255 255
0.317250231243 -0.825741947292 4.89522163148 255 255 255
-1.68172245932 -0.999732488291 4.51876402193 255 255 255
1.22891568527 -0.137673090535 4.89745886158 255 255 255
-0.258387591197 -0.667860618681 4.7372527958 255 255 255
2.48436285453 0.244289327839 5.67899778207 255 255 255
0.756053562158 -1.42553976509 5.10640915177 255 255 255
1.41079462083 0.924947373806 4.66456593108 255 255 255
1.68866084444 0.290753037816 4.86531888017 255 255 255
0.253744763959 -1.62114984239 5.01433658139 255 255 255
0.349701668136 -0.925559160494 4.89983789962 255 255 255
-0.684917191818 -0.700914885383 4.66027644936 255 255 255
-0.279243082103 -0.805942624421 4.75009709473 255 255 255
-0.315311713894 0.00271252705685 4.65573645954 255 255 255
2.22684030431 -0.654154966935 5.19532360328 255 255 255
0.240654555801 -1.3202012789 4.97611800073 255 255 255
-0.369263238813 -0.595398464958 4.69740052716 255 255 255
0.491639465785 0.101454812724 5.15877210298 255 255 255
-0.373813892053 -1.24013259939 4.84613911146 255 255 255
1.32698018568 0.419052870517 4.7959690612 255 255 255
0.0725157741681 0.0119011623673 5.06907250766 255 255 255
1.09725213198 -1.42465114902 5.17766509444 255 255 255
2.53579475481 -0.489073580325 5.24189969127 255 255 255
1.69073706729 0.0965666937002 4.90172847947 255 255 255
-0.73013566562 0.0792680096964 4.47090920148 255 255 255
-0.177368182844 -0.971112382251 4.81933294394 255 255 255
1.37548884087 -0.956638248117 5.12158130777 255 255 255
1.24286463457 -1.23211796699 5.15518697578 255 255 255
-0.296551023598 -0.18120140653 4.78687097009 255 255 255
1.0068776052 -0.925863267206 5.05379082329 255 255 255
0.964442667695 0.299087252999 4.77528648307 255 255 255
2.57366225265 -1.00284848705 5.33640575858 255 255 255
1.00554445941 1.07772118452 4.23856351778 255 255 255
1.43680468993 -0.0264084101574 4.91629149111 255 255 255
-0.35944131657 -0.558089225978 4.69180019829 255 255 255
0.795163857052 -1.3100009605 5.09310868207 255 255 255
-1.01633057699 1.08943724159 4.15966322289 255 255 255
0.0788916076597 -0.772190806032 4.83600396882 255 255 255
1.41902205996 -0.112235556167 4.92587462594 255 255 255
-1.54557430543 -0.752706369144 4.51591690472 255 255 255
-1.83100656893 -0.796572680421 4.44009514346 255 255 255
1.06131345052 0.89171915302 4.62753079643 255 255 255
-0.39569167815 -1.31443415118 4.86166002161 255 255 255
-1.57552905713 -1.0733988249 4.57640487028 255 255 255
0.980821129186 0.200122047131 4.78516690008 255 255 255
-0.516056108887 -0.292678199607 4.60155341623 255 255 255
-0.990156335438 -0.514297931191 4.55570031725 255 255 255
1.45441091755 -1.09370640803 5.16438720559 255 255 255
-0.316866640897 0.0610387219449 4.72292444247 255 255 255
-0.843445963739 -0.166660841654 4.51135789242 255 255 255
2.78089349149 -1.03265626219 5.41526777301 255 255 255
-0.694083568088 -0.913415048357 4.70729933297 255 255 255
0.912938881147 -0.339762112673 4.90222974179 255 255 255
-0.552912648007 -1.03688518604 4.76632255592 255 255 255
0.110845205862 -0.936311771474 4.86055720242 255 255 255
0.201449874368 0.928044119209 4.86554331392 255 255 255
0.143507569027 -0.905889065844 4.84264345823 255 255 255
2.18480138715 -1.02109818726 5.26115811605 255 255 255
-1.08736351102 -0.520208306065 4.53979930921 255 255 255
-1.01425130146 0.771070845752 4.2618387798 255 255 255
2.68530288187 -1.43903164339 5.52620222025 255 255 255
0.733419999513 -0.888722598644 4.97953915536 255 255 255
-0.87402421142 -0.383016881209 4.55482927523 255 255 255
0.257076353247 1.03564102313 4.2962035538 255 255 255
-0.328794621975 -0.0124215931998 4.61765915281 255 255 255
-0.716264485551 0.362417909759 4.41186035172 255 255 255
1.02033644494 0.593975551738 4.67425724055 255 255 255
1.03243617102 -1.63230801762 5.21327636539 255 255 255
0.785187410741 -1.24921457755 5.07758973241 255 255 255
1.54964148122 1.15426881539 4.62770889145 255 255 255
0.800999402673 -0.289751614611 4.94003564426 255 255 255
2.24068093155 -1.42111210738 5.45386380626 255 255 255
0.981140856494 -0.472210760622 4.90187866655 255 255 255
0.260423321054 -1.42846465885 5.00392219972 255 255 255
0.5304365717 -0.943953855929 4.93175121236 255 255 255
0.947038843845 1.06549860737 4.23405102105 255 255 255
2.72809309304 0.0173807145717 5.1575307818 255 255 255
-0.684361274971 -0.699172620095 4.65336986448 255 255 255
0.760133806959 -0.409149228275 4.95402343843 255 255 255
0.0601861970017 -1.27108961436 4.93608167339 255 255 255
2.2581624763 -1.67566825378 5.46374679186 255 255 255
-0.245622767794 -0.346055193025 4.83775313355 255 255 255
-1.02430348294 -0.150992347158 4.47423267936 255 255 255
1.85197780446 -1.77603206968 5.38178286225 255 255 255
2.63727903698 -1.63705068585 5.54201211472 255 255 255
1.73433219126 -0.934228342703 5.19653523731 255 255 255
1.73249564155 -0.934500108739 5.19285906205 255 255 255
-0.750212826322 0.395127908659 4.39953722657 255 255 255
-1.88578308749 -0.939441712158 4.49550121893 255 255 255
1.75156145856 0.466806952567 4.85784978669 255 255 255
0.102818664321 0.0401457322431 5.0656803519 255 255 255
1.35355049308 -0.737582090959 5.05491509248 255 255 255
-0.545083227363 -0.0106289275898 4.52200365869 255 255 255
0.168958896042 -1.36738601632 5.00687127977 255 255 255
-1.64823889459 -1.10471006169 4.56360658335 255 255 255
-1.23535831967 1.08625442294 4.12221854175 255 255 255
-0.259692608896 -0.193701770056 4.88050353224 255 255 255
2.7718664298 -1.43447034797 5.50374404724 255 255 255
1.7337606304 -0.312739823839 5.03332533648 255 255 255
-1.67461926706 -0.970663900941 4.52116855429 255 255 255
-0.31932941752 -0.827062412545 4.75583740944 255 255 255
1.57178565482 0.0148063086044 4.92429881849 255 255 255
0.529238204201 -1.06512826733 4.95985182213 255 255 255
-1.26155838457 -0.0739778072339 4.41506977021 255 255 255
2.25212221111 -0.739730355653 5.2202967255 255 255 255
0.955949212571 -1.63757425527 5.19594571975 255 255 255
-1.03126520838 0.94657514252 4.18324300083 255 255 255
0.92523146258 -0.657607209935 4.95921612885 255 255 255
-0.665768307542 -0.154705239491 4.54194793009 255 255 255
0.286605336982 0.472343490334 5.00443016124 255 255 255
2.49553374245 -1.60436758014 5.50414244002 255 255 255
-0.72699812458 0.0246784302996 4.48698971601 255 255 255
1.50038202577 -0.179605019138 4.95560891838 255 255 255
2.61206025335 -1.60952377275 5.53375330374 255 255 255
1.43025943678 -0.155528004866 4.9414651699 255 255 255
-0.643563879159 -0.925525551211 4.71954740156 255 255 255
-1.83780491088 -1.31667341441 4.62073786715 255 255 255
1.81758728456 0.187268360221 4.91076645829 255 255 255
-0.324243506413 -0.578176528673 4.70682614679 255 255 255
-1.64070283521 -1.24112298715 4.57541607388 255 255 255
2.63420824253 -0.826039451161 5.34607719087 255 255 255
-0.112212687102 -0.820351666184 4.78496193722 255 255 255
-0.388831258055 -1.5026335726 4.91193603253 255 255 255
-0.438732134674 -1.00779512521 4.77895806459 255 255 255
0.291732994614 1.03099617798 4.21052460664 255 255 255
2.69254961181 -0.874386801481 5.36336933148 255 255 255
1.39270409359 -1.86231690366 5.35060392333 255 255 255
0.966676804283 -1.16977125203 5.0816809562 255 255 255
1.30781055664 0.904977916969 4.58482583464 255 255 255
-1.36488512533 -0.0828817117847 4.44380537408 255 255 255
-0.723726600213 0.940025573841 4.23962925986 255 255 255
0.640896236672 -0.369941217483 5.01185811199 255 255 255
1.01547349828 0.628222443739 4.68589515486 255 255 255
1.5090934963 -1.16486537996 5.19987967261 255 255 255
-0.763945758913 0.371136575115 4.40253354399 255 255 255
2.62124370166 -0.884584500773 5.34592456459 255 255 255
1.65250040475 -0.666093642641 5.10558218833 255 255 255
0.864417258353 1.03655948786 4.32408065937 255 255 255
1.18115814089 0.708346422268 4.65665051086 255 255 255
0.981470963353 -0.181397983997 4.86273240968 255 255 255
0.0379866073595 -0.880090060008 4.81931735092 255 255 255
1.04336842039 -0.222419794898 4.87823875317 255 255 255
-1.38920511047 -0.900729936139 4.57634987165 255 255 255
-0.345734670069 -0.668915301661 4.69538111508 255 255 255
-0.345490957792 -1.37925893062 4.88536798843 255 255 255
1.07910560807 1.1081878503 4.24865514358 255 255 255
3.32532512485 -0.960113697095 6.1381966752 255 255 255
-0.97930784867 0.129199636296 4.41890047397 255 255 255
-0.821683565962 0.949926313755 4.22336963705 255 255 255
1.0941223627 0.955270686751 4.5836818621 255 255 255
-0.568791414956 0.969787383467 4.26334787539 255 255 255
-0.324694826883 -0.706771381376 4.69804060891 255 255 255
2.2700157404 0.221976919441 5.73512234535 255 255 255
-0.328993910758 -0.582057344348 4.70713859302 255 255 255
1.62430518332 0.109959326541 4.89677538944 255 255 255
0.0995478570527 -0.02263877533 5.07432271105 255 255 255
-0.99501388682 -1.27281423367 4.741125258 255 255 255
-0.977474140773 0.0812394431362 4.43209852836 255 255 255
1.34081355937 0.00110842285923 4.88687892319 255 255 255
-0.577480150418 -1.72146537606 4.914865237 255 255 255
1.26454741239 -0.825954819231 5.06555927693 255 255 255
0.556197669685 -0.0750982652164 5.15155292377 255 255 255
1.22601260657 -0.320746089227 4.94741625938 255 255 255
-1.26453326806 -0.363281524123 4.4783649939 255 255 255
2.28346462327 -0.469917921272 5.19416939623 255 255 255
-0.442266144145 0.853130929772 4.35341624196 255 255 255
0.414410111681 1.09414720409 4.12247843354 255 255 255
-0.0167664617039 -1.12333790957 4.86189894699 255 255 255
0.8808306658 -0.507295064004 4.91933521982 255 255 255
0.0889849638442 -1.17980948984 4.92831631145 255 255 255
-0.0925521767752 -1.25767696215 4.91004468399 255 255 255
-0.966932293864 0.847473196767 4.23621146889 255 255 255
0.656884620677 -0.707321692322 4.92613772506 255 255 255
-1.21666369311 0.950435707862 4.1449045463 255 255 255
-0.630828843213 0.315761003372 4.44327329603 255 255 255
2.8034518262 -1.30690969679 5.48862943294 255 255 255
0.46900016013 -1.03787148503 4.97180416593 255 255 255
1.6517480946 0.0267521427991 4.94236790361 255 255 255
1.10589304173 -1.31705773607 5.15971572654 255 255 255
-0.566790986149 -0.0802937664967 4.5098556773 255 255 255
-1.01330595496 -0.936681284426 4.65311647504 255 255 255
1.01364813994 -0.909027107903 5.04212851763 255 255 255
-0.39660521544 -0.474249924615 4.66295769968 255 255 255
1.83415568405 -1.68099593192 5.39356674447 255 255 255
-0.601687418814 -0.118144641784 4.50968686217 255 255 255
2.25539951172 -0.599510067458 5.18403190714 255 255 255
-0.945126723632 0.72916767952 4.28542392452 255 255 255
1.20149514667 -0.0107004438001 4.85802615367 255 255 255
0.838199468838 0.0545977981942 4.84595019978 255 255 255
3.49109588427 -1.29303201753 6.30067227703 255 255 255
