ply
format ascii 1.0
element vertex 695
property float x
property float y
property float z
property uchar red
property uchar green
property uchar blue
end_header
1.0222011260253814 -0.09189089746304595 4.889810014698198 255 255 255
1.5787217966440394 0.8320934939533439 4.332612738492965 255 255 255
-1.9476200247194606 -0.9713202724112494 7.162763929363845 255 255 255
0.18454809554672286 1.0400127268114516 4.754525374136805 255 255 255
1.3186350639031348 -1.493370027617266 4.840429366588196 255 255 255
-0.6347525250453647 1.3220128538736304 4.20886662203935 255 255 255
1.4332444981266788 0.37188612701453405 4.50199774529004 255 255 255
0.8888279494100313 -1.2422842241457985 5.133233343814167 255 255 255
1.5882572296868525 0.9823570684124813 4.303979921153142 255 255 255
1.3908784385617066 -0.9121392744681757 4.699482294515806 255 255 255
0.4618725589526618 -1.213560791670094 5.446032994330407 255 255 255
0.8373409896473875 1.2996717212182651 4.818412891520949 255 255 255
-1.7771629909524687 1.0130620246909625 4.964877717454664 255 255 255
1.2097723058219276 0.2617619579120072 4.693491804971341 255 255 255
1.366328990044632 0.2434110954156901 4.565535389055314 255 255 255
1.3817598925089125 -0.9006801862123112 4.7072772170648065 255 255 255
0.8575000362412126 0.4334708835418715 4.929567355919943 255 255 255
0.7748677046673738 -0.9438092516658353 5.173709159803307 255 255 255
1.3784747852819206 1.0137998922224727 4.460958238333536 255 255 255
0.12869476469013116 0.9203650734650494 4.768103559027927 255 255 255
0.14753397062434642 -1.0774026387353683 5.646911540792123 255 255 255
1.0311923343492526 1.2715473237752033 4.6790783377438805 255 255 255
1.0546314900656009 1.2752331334344698 4.663473379378049 255 255 255
0.9262403283654618 -0.9814711165662663 5.067449495740378 255 255 255
1.3529826850829714 0.8489473468437112 4.497882356581619 255 255 255
1.3442880119127292 -1.2722469273123804 4.792842926771957 255 255 255
1.549268217637865 0.4754573842966183 4.404129785308455 255 255 255
1.479647271004698 0.584125995135247 4.430380958138803 255 255 255
1.146114372957192 -0.7402484428838718 4.8680124448358875 255 255 255
1.1941118251087817 -0.49550810265443457 4.798454117064812 255 255 255
0.7823645917456079 -0.8531122455980515 5.156707369903593 255 255 255
-0.630237669746888 0.3378198939407685 5.5213911476405 255 255 255
0.8433765573534482 -0.9797002086900739 5.119228602099075 255 255 255
1.4126882364118274 -0.5788247216288553 4.642560111041266 255 255 255
1.5951749021620178 1.304974121812632 4.154453310690945 255 255 255
0.5034484340343508 -1.088980589797333 5.3860146497966 255 255 255
0.6693061278562661 -1.1071740769138112 5.272352212705022 255 255 255
1.0794845854011554 -1.6390275121182978 5.03225878178333 255 255 255
0.2345638618411606 1.306707110618382 4.64304787222951 255 255 255
1.3774968326617176 0.29973894999028683 4.552156047412074 255 255 255
0.9944736717889594 -1.0880977126253717 5.024018802204659 255 255 255
1.184267768445607 0.7384468546973515 4.657867721428627 255 255 255
1.3705510324717172 -1.5249290893036627 4.802349558652825 255 255 255
1.5663484607048443 -0.9248014456275107 4.5716660872219315 255 255 255
0.7793012096685402 -0.6453590926622038 5.1244519011187135 255 255 255
0.7407341657852818 1.0573045821362272 4.927404584420014 255 255 255
1.580666218342298 -0.8662707387753533 4.557193149410463 255 255 255
1.3764036353440203 -0.13282977952330988 4.620418367002106 255 255 255
0.9133825555056446 0.8874357668232994 4.819904302786339 255 255 255
1.1756505372582557 1.0152506674249544 4.616724783787059 255 255 255
-0.5715577721787239 -0.007346698473643412 5.721699075146765 255 255 255
1.4513730323804372 -0.5061926500023634 4.609729406418895 255 255 255
-1.80856632951035 -1.7122001123675208 7.153076914930827 255 255 255
1.1506684952592936 0.07661395936579005 4.765437445457546 255 255 255
1.114378788208303 -1.0485901726312115 4.931413048451721 255 255 255
1.167728392718831 0.2948497430870109 4.726756245655113 255 255 255
1.0154243544462986 0.36597743587734965 4.816334552033227 255 255 255
1.4570438918214843 1.1822628086902185 4.376415236511662 255 255 255
0.13739215422799148 0.757749369521893 4.8432165875009625 255 255 255
1.1739901117405724 0.0410891768739268 4.751361839438135 255 255 255
0.18604976126688064 0.9624947617458288 4.744123645000925 255 255 255
1.3559894749722579 -0.9262706240034545 4.727977896537778 255 255 255
-0.3145350564779072 -1.7610173925837258 6.068765599123413 255 255 255
1.567430225266966 -0.056007523112161124 4.4598338334367 255 255 255
1.5822716850961365 -0.22591487579163372 4.471443523941342 255 255 255
0.7276285305712527 -1.5581175000948573 5.290379097486247 255 255 255
1.4945718665751142 -1.1006717709340594 4.659191482437441 255 255 255
1.5769608014605052 -0.30659764330208394 4.482873439912532 255 255 255
1.584420704626865 0.8430477259488293 4.336094982026953 255 255 255
1.0724191313575455 1.0800745479800435 4.6695090506686165 255 255 255
-0.26915243897468544 -1.8768351448465264 6.047646783131106 255 255 255
1.181524045149769 0.4078663628917571 4.680609250030897 255 255 255
-0.11408144228779363 1.3170455460072013 4.71230041988054 255 255 255
-2.31478712133893 0.02492772690692685 7.29399090234732 255 255 255
-0.0705382842331749 -0.3275257125155393 5.491222894656121 255 255 255
1.0055473554495042 -1.4439432552593472 5.076635519872996 255 255 255
1.533559506425879 -0.6520848932309787 4.56212377820091 255 255 255
1.315860590552285 -0.277228688852258 4.6718547791725245 255 255 255
1.5606316935532718 0.4298871988644456 4.399122053720138 255 255 255
1.5876388355569921 0.981845455685688 4.303799411486351 255 255 255
1.5621972222156866 -0.4124164394560624 4.507505188138027 255 255 255
1.4558395972240834 -0.7868753063666372 4.634427853851821 255 255 255
1.0495387348251544 0.775587988539189 4.733242806322821 255 255 255
-0.7619236377963909 0.8294705124963925 4.258679911974699 255 255 255
0.7407658829137678 0.7726317961689707 4.9735200300864975 255 255 255
0.5035414657183599 1.370356369149031 4.608609032809905 255 255 255
1.7523219742527636 1.3190570601819596 4.204929608504715 255 255 255
1.3000299562569269 1.0057274212318252 4.540743329107418 255 255 255
-0.03518847141305985 0.9688052823821379 4.815642802391582 255 255 255
1.5094271874161107 0.8807097451526921 4.373044292729167 255 255 255
1.1846920330131803 -1.483108026133184 4.942779065305166 255 255 255
1.0948642320604383 0.34166789398939484 4.756857844119913 255 255 255
1.1237288459500114 0.009176441818707073 4.791782859752725 255 255 255
0.5848237705953634 -0.2292387724947995 5.2281160378228355 255 255 255
1.5765540899112227 0.7019566743872384 4.350345219875724 255 255 255
1.3629697895313018 0.27146381088760707 4.573379373014505 255 255 255
-1.6816187960457123 -0.683924222623209 6.936213910562543 255 255 255
1.2917461074953513 0.24475654152887988 4.630015114869289 255 255 255
1.5022502604826926 1.2194219742893022 4.334628529603291 255 255 255
0.3774126061911059 -0.9080566807832074 5.467393894146929 255 255 255
1.5861188412693328 -1.0925962212857427 4.580775083707375 255 255 255
0.893056478532632 -1.2734861898455476 5.1330100389008235 255 255 255
1.4895371072280128 0.35718526575395493 4.468589813510398 255 255 255
-2.1251702687530476 -0.537683720670114 7.226582948918211 255 255 255
0.9225645708561784 -1.048170475057636 5.0737152372671535 255 255 255
0.35980673312555495 -0.9192657981879927 5.478668286107251 255 255 255
0.39524388076444145 -0.40631270748138787 5.380342046591809 255 255 255
-0.7281320320760258 -0.34452701827560156 5.835982408350246 255 255 255
1.4314940591304002 -0.9397947248774999 4.669631797957425 255 255 255
1.2133648738481357 -0.30653819619113387 4.771789463362437 255 255 255
0.8547586221494157 -1.1264879735294187 5.13606469687187 255 255 255
1.4738113212189112 1.3550623479648158 4.234951499662241 255 255 255
0.6731444676230215 -0.9725765790484412 5.247889041898181 255 255 255
1.5187529745836976 -0.30731063738908176 4.52425252666017 255 255 255
1.3508280190834294 0.3060711211875556 4.575072918375392 255 255 255
0.45603369993095993 -1.103989734227689 5.4355801906151555 255 255 255
0.61853563207634 -0.5798843233567486 5.240631016645195 255 255 255
0.1478453857507282 0.6815873075109972 5.081656824251301 255 255 255
0.9445927397872482 -1.0521176938118186 5.060362420433228 255 255 255
0.8346364434014066 -1.1457579720995756 5.157408321834939 255 255 255
0.5659405326240664 -0.9947287701320118 5.327482496416946 255 255 255
1.5445929411841912 0.40707178751087786 4.415422834856003 255 255 255
1.4432794944366933 1.2412520866821117 4.3793070491332005 255 255 255
0.9478900944513518 -1.262188252513307 5.082374744824915 255 255 255
-0.9227513148487471 0.9791272837976931 5.511162524162896 255 255 255
-0.2178550063977308 1.004026952465965 4.616155060874414 255 255 255
-2.007424071770317 -0.7106134206746503 7.1608095294536644 255 255 255
0.9755434162163048 -0.8804804069354463 5.019963520607122 255 255 255
1.1994575357332553 -0.3115298261760881 4.78711775266605 255 255 255
0.9860098235175985 -0.7304050566139297 4.977951050348939 255 255 255
1.264001920974983 0.4406297420598916 4.613290607235424 255 255 255
1.3341455781031881 0.517024747260073 4.568011236515062 255 255 255
0.936907712315365 1.028614683000408 4.8046375136722395 255 255 255
1.313199363874509 -0.7218964277866035 4.745333456680283 255 255 255
-0.11356065887340683 1.3218587174716334 4.725852202007018 255 255 255
1.4242356382333146 1.4603284091653888 4.25261118781521 255 255 255
-0.08091681634095618 1.4183728235129685 4.6794013918124815 255 255 255
0.8751310255338671 -0.45725293673005746 5.052300702946467 255 255 255
-1.862845471385094 -1.3372997885542501 7.1476874532202395 255 255 255
1.2966933472961477 0.8587725821206836 4.5380988931930935 255 255 255
0.3532913393940235 -1.3702917257213783 5.5283096851535065 255 255 255
0.46038161348601053 -1.1252941414800774 5.421850435694554 255 255 255
1.203444108986054 -0.6637606915898835 4.818741869655052 255 255 255
0.31732444330026766 -0.3977356557452525 5.444556904497333 255 255 255
1.0047439044831235 0.08382542512568988 4.8795843698094 255 255 255
0.970192021257934 -0.49806084691139685 4.967507351265468 255 255 255
0.13499614369366333 1.0249137817820562 4.801074377011002 255 255 255
1.2610948319224864 -1.31669595870727 4.848528956702553 255 255 255
1.318331608878668 -0.2282899159836093 4.666688487468252 255 255 255
1.480359355889675 0.31265377237835257 4.477487489708584 255 255 255
0.35004692693929496 0.804749791883421 4.692679720597873 255 255 255
-1.27470356521758 1.296182108720306 4.490370508966421 255 255 255
1.586059359461854 -1.3439533491804379 4.61090029748983 255 255 255
1.5397530746657302 -1.4474580576630127 4.659477831640707 255 255 255
0.8111343054453216 0.09843917124530774 5.0054485284635435 255 255 255
0.19837733804049226 1.3524204199520662 4.634827193344401 255 255 255
1.0230646564862313 -0.9873907028335149 4.9998737522420145 255 255 255
1.460304483398259 0.48739821435982544 4.468966810128711 255 255 255
1.1862181262698188 -0.16148053272922785 4.768136206237348 255 255 255
1.4469515307631313 1.314663268208978 4.270687014763093 255 255 255
1.4606662638548653 0.48737586069973304 4.4690163909053675 255 255 255
1.2421726715712702 0.5119938453166525 4.629989145625065 255 255 255
-1.7699744210956339 -0.66180545140754 6.980747545710204 255 255 255
1.1675969746091615 0.2773580571226492 4.731956771182501 255 255 255
-1.7518121277851877 -1.3439620788505382 7.072506541902558 255 255 255
0.9531104879673669 0.5382170278653856 4.846737302304851 255 255 255
1.0957232116207354 1.1124559891678094 4.658320745595691 255 255 255
1.5700340557107366 0.9972497349123848 4.316185482708687 255 255 255
1.3325045305900616 0.11590018416901961 4.616068973750538 255 255 255
1.1751194549665038 0.052401808160835374 4.753641186599563 255 255 255
1.5912726024717485 0.999602818170219 4.294406310819031 255 255 255
-2.206778630446862 -0.8634101816518988 7.322668250571525 255 255 255
1.352812756532048 -0.7186389150492308 4.709987029719501 255 255 255
0.9799592168953223 -0.7100611748191253 4.98855025606877 255 255 255
1.5008339687942567 -1.2572577842207722 4.665572831736595 255 255 255
-1.9644782383146444 -0.007355661761160716 7.080365468665047 255 255 255
1.4761067952316935 0.7535342075745836 4.418370968458576 255 255 255
-0.393060961174777 1.3894236292276296 4.249269212824486 255 255 255
0.07286672159709193 0.7131069976881365 4.899492327966506 255 255 255
1.4394875183101719 -0.6243543237199323 4.620848202938002 255 255 255
-2.1917526450994664 -1.1194231108228838 7.3541573412542585 255 255 255
1.3689595217696715 0.3877732113443639 4.540552759022575 255 255 255
1.416430346726185 -0.9595604067126103 4.689573957311232 255 255 255
0.22219568795675518 0.6229899981373549 4.913889831443521 255 255 255
0.6279556931089199 -0.8291566084377042 5.263800390751571 255 255 255
0.40400974567596987 0.8923823725040013 4.535700980411346 255 255 255
1.2532447031527953 -1.0899143201929873 4.833432233302825 255 255 255
1.0083636103337872 0.5575947449355785 4.80037063453794 255 255 255
1.4457752478931993 -0.15660648436382982 4.559423824261031 255 255 255
0.8138329476890719 -0.11191965604048336 5.037009106635328 255 255 255
1.2995848635655036 0.14636437033451208 4.63508878685013 255 255 255
1.4197654009457037 0.7894625531994495 4.4590876599277545 255 255 255
1.3792969826294017 0.29931474261000934 4.554086194086046 255 255 255
-0.5984467400822314 0.7753088576803435 5.384284109268575 255 255 255
1.6410166926395824 0.6854675875024584 4.345733725468247 255 255 255
1.1573850171699913 -0.729161309581008 4.862181595485755 255 255 255
0.44800607464442194 -1.3051144898039153 5.450605665788329 255 255 255
0.021111413986191856 0.7072177966037508 4.9391035510694214 255 255 255
1.527322842247716 -1.0333364620985888 4.579725433763488 255 255 255
1.3078616858257188 -1.3308827409126316 4.813638332147232 255 255 255
1.0131427205766455 -1.5657292067667796 5.077887594357488 255 255 255
1.259288437137477 -0.0036447766616812386 4.68369573321213 255 255 255
1.2086514307780216 0.5713116616148073 4.647374431902458 255 255 255
1.0284912739267047 1.372083760839616 4.57587761714985 255 255 255
1.4677657176379646 1.043389538269956 4.3856403308783065 255 255 255
1.0901163519475483 1.0978368552565385 4.661881365896151 255 255 255
1.0955395209072167 -1.1120782151108106 4.948552982542953 255 255 255
1.4165934643844469 0.06643340863914018 4.573351940674599 255 255 255
0.07441433363133776 0.6889341035186999 4.906665177686405 255 255 255
0.28960705387627284 -1.730908690820543 5.631680551598291 255 255 255
0.48193261157747813 -0.962504479473189 5.40828914090243 255 255 255
1.165200255998046 -0.9072934072501595 4.868264735944579 255 255 255
1.3656021286100186 -0.3253318886352209 4.656593850192447 255 255 255
-0.4938148416983783 0.06336537394729941 5.680622739191433 255 255 255
0.8089918961064637 0.10720045073720053 5.00991432309076 255 255 255
0.6676914242967964 -0.5990958628861208 5.222305118660301 255 255 255
-0.4885943029599739 0.7464752962072881 5.315525281713655 255 255 255
1.2193039290994283 0.3365849102074998 4.666886858012231 255 255 255
1.0227617828956987 0.09160537827855178 4.868928620331923 255 255 255
1.1906476727484616 -1.3163430427561857 4.907477963052991 255 255 255
-0.32144216228783884 0.0669316282807455 5.4990252572622245 255 255 255
1.0949863310293737 -1.3153994816913144 4.978559080115879 255 255 255
1.4716199251861275 0.559866252658357 4.441711426230087 255 255 255
1.1834406446493886 -0.3172895760867436 4.791497840350023 255 255 255
0.8770918893590532 0.476817742938152 4.900750403435267 255 255 255
1.4757662958295108 -1.1589976174956642 4.677060870474107 255 255 255
0.08281641661971824 -1.1257808098019075 5.584281194582808 255 255 255
0.8955902823612655 -1.185291076877311 5.111495537518781 255 255 255
0.9862256100694621 -0.4875878842747739 4.958652323934428 255 255 255
-1.206494516712332 -1.7973193983767988 6.748074276724483 255 255 255
1.0152032834052263 0.24120364185403753 4.836564873925057 255 255 255
1.5353907854663975 0.1956568179174433 4.447471570220489 255 255 255
0.008143557273097417 0.9017586481112654 4.829964494419287 255 255 255
0.817824963379419 1.48463004491266 4.719541392373919 255 255 255
1.1159652055286127 -1.4909034825659573 4.99157926620569 255 255 255
1.0971691727493242 1.085209793562893 4.660355695529432 255 255 255
1.039809736496742 0.42242526525057605 4.792763525469873 255 255 255
0.5376405144990926 -1.336429259814361 5.393889287107706 255 255 255
0.8772758526350735 -0.03833318392116976 4.963822993750951 255 255 255
1.3567035121961346 1.3220641663870796 4.334691321501628 255 255 255
1.1186908201860704 0.2811983791088296 4.752568941682669 255 255 255
1.356541414806969 -1.1256175459750857 4.769917277888747 255 255 255
0.1703435952663172 -1.3433213373189237 5.671648641520646 255 255 255
0.12455580708501408 0.7263613476318389 4.865119540445975 255 255 255
1.0015436366310058 -0.017285536445476483 4.884821015158947 255 255 255
0.9467415908703678 0.2519446241774504 4.893432313366965 255 255 255
0.706960346359403 0.2574541060194355 5.048679810118523 255 255 255
1.4477969826875356 1.0605612161380165 4.399750151893431 255 255 255
0.8562159902731752 -1.2870287641334681 5.155617395013582 255 255 255
-0.5664368386136699 0.24931527835104356 5.684783135272499 255 255 255
0.5849434603648195 -0.9094588907282953 5.313315041309692 255 255 255
0.9779397300277392 -1.3217653221383914 5.061794194065855 255 255 255
0.8284853883080653 -1.0018835121238376 5.128208425806346 255 255 255
0.9996277352172575 0.9942481226429535 4.745699338612431 255 255 255
0.9496037618587962 -0.6257858270999753 5.001396412436477 255 255 255
0.7163941730195587 0.5512970924558714 5.01128208103756 255 255 255
0.4002465313280304 -0.24090732436418133 5.351348654118809 255 255 255
1.5729335597492975 -0.6528938989044367 4.534685914207571 255 255 255
1.1981612647941362 -0.8503815248929997 4.841240432761174 255 255 255
1.2133272428473842 -0.672873210365684 4.8090388108726865 255 255 255
0.27813376346707913 0.6062398882926723 4.919234404270885 255 255 255
1.2313325028347348 -0.16721631640057294 4.725506596305401 255 255 255
-1.5513459622477632 -0.9783642920502477 6.866484885962227 255 255 255
1.1314830133421154 -0.6757727661899722 4.873249658480625 255 255 255
0.9439514154587968 -0.4725856332011472 4.987157259586832 255 255 255
0.7879091093577201 -0.26646611517647223 5.081162281850924 255 255 255
-0.05010946230633158 1.0077944799307168 4.853462106717511 255 255 255
0.1433312553563369 -1.9276609783523766 5.773336977440644 255 255 255
1.4140293223011178 0.952508045797679 4.448705138509895 255 255 255
1.5242020603157806 1.252573816489015 4.306519732203031 255 255 255
1.350063838408645 0.6941932272720037 4.522039105789852 255 255 255
1.553669707786568 -0.27981446815288014 4.498408371824089 255 255 255
0.7874622060738875 1.3884197108441914 4.750708010301658 255 255 255
-4.212690275349076 -2.210714383871262 7.9641995863353845 255 255 255
1.5024222721036085 -0.18289179985522389 4.524765519678714 255 255 255
1.026467834529744 1.0813275365522725 4.7116458337186025 255 255 255
1.232738311784622 -0.9294477618978302 4.820681920013755 255 255 255
0.22090889901741276 0.8669549884646964 4.774566766860345 255 255 255
0.9964297619591195 -1.0855727093050136 5.021500433228894 255 255 255
-0.7101760652206132 0.8219753994212297 5.4643481949004995 255 255 255
1.330806644509612 -0.8776111431031032 4.745859337546848 255 255 255
0.8909885060793585 -0.1737224983970163 4.985585519995184 255 255 255
0.8395511060413492 -0.05661968625360076 4.9998822746851515 255 255 255
0.5614227790834122 -0.7162054218003042 5.293703564624545 255 255 255
0.39808047126535756 -1.179748810456926 5.480664832990717 255 255 255
-1.530747253739699 -0.9929783681288861 6.861062369451318 255 255 255
1.3830346037318568 0.982283051219551 4.466135763264119 255 255 255
1.511455052205412 -1.1239566395706035 4.643777213634129 255 255 255
1.33300683974879 -0.4916082985822239 4.698731868722219 255 255 255
1.2366691003642336 0.43100754965761245 4.633977578126753 255 255 255
0.9482623323474417 0.9906240960547023 4.792239118046797 255 255 255
-0.49185159651029864 1.3598381766121246 4.2382262793466 255 255 255
-0.42173589484900365 1.4123604813265271 4.239430997131757 255 255 255
1.4871334140379335 -1.5306783996763884 4.713352283993053 255 255 255
0.40989352273452395 -0.7984949409652116 5.426191100873329 255 255 255
-1.6972500816962424 -1.3379422479902676 7.04886843363114 255 255 255
0.5214129236400042 -1.3823469465506555 5.4124035945754905 255 255 255
1.5074282439714686 -1.4879678361029098 4.704197608419546 255 255 255
0.3941146006007892 -0.3405946766999794 5.363383826410982 255 255 255
1.2437238112739997 0.0845418105089077 4.704211494569083 255 255 255
1.3858122825218502 0.06843758482150986 4.586201133689155 255 255 255
0.15302732684513493 -1.5805993906327191 5.715555602487574 255 255 255
0.9759892308584376 -1.5068494752012618 5.087910047983117 255 255 255
1.3022626476934864 -0.9023352615592114 4.766525552509258 255 255 255
1.0800868450792116 0.9576348481031912 4.6851982007721436 255 255 255
0.43068310815720623 -0.8772816921070311 5.4163096459042315 255 255 255
1.5166557222487984 -0.121727501288142 4.503937182526361 255 255 255
1.1757608623210853 1.0278242143257834 4.613557633812076 255 255 255
1.5774027526682162 0.009541537037733272 4.4509812513520055 255 255 255
0.4287135530338958 0.5821994876432309 4.796360843466706 255 255 255
-0.31845671094281514 -0.0576552385014736 5.479461470287876 255 255 255
1.5873616198982896 -1.0002016449818596 4.56598285288592 255 255 255
0.25228567507000643 1.3503597365109006 4.603608045732541 255 255 255
-0.30849628871487217 -0.15589677046640307 5.4495849598634996 255 255 255
0.8175822908598688 -1.2402067828668393 5.191816963874392 255 255 255
0.9860541322055147 0.4338172030633186 4.83089540314596 255 255 255
1.1994054489995025 0.708912781225354 4.6348612487251835 255 255 255
-0.4859998390450613 -1.1300574681056423 5.4811130531964904 255 255 255
-2.098885301536359 -1.5947162250024831 7.332168549833681 255 255 255
-0.177509654965032 0.9151000182355357 4.633448800033576 255 255 255
1.2447365662605534 -1.1009670339535549 4.8358244983451035 255 255 255
0.34244722079906414 -0.49283814437822054 5.425659925444547 255 255 255
-0.09002525241927613 0.46187814214772166 5.405826282835573 255 255 255
1.046812785842398 -0.33232101396324987 4.8883058833026025 255 255 255
0.41310050473690413 1.3522946681365275 4.487142773702476 255 255 255
-1.9257613492605665 -0.17578068585036072 7.0246120676993 255 255 255
0.660915220374357 -0.94518624935652 5.260648553333668 255 255 255
1.0194341440923573 -1.2062077904169415 5.0205203705854995 255 255 255
1.3670565625439992 1.0456357267760286 4.456809571461142 255 255 255
1.093691167710564 -1.3802222264875075 4.984117486337131 255 255 255
0.33158271405032025 -1.1759296286070962 5.529887240617612 255 255 255
0.020478629574977574 0.30945007225081916 5.290577910782853 255 255 255
0.6423827755413409 -0.40287492483358806 5.186521715219557 255 255 255
1.593928963643461 1.0571955609271804 4.285707760090349 255 255 255
0.3535924568553782 -1.4742657303269724 5.551023330086453 255 255 255
1.1994588680353255 -0.7596049962566096 4.830568787339628 255 255 255
1.1588045696421043 1.2286560411144947 4.604377656936589 255 255 255
0.8270061882205854 -0.01845635631370608 5.00502668190366 255 255 255
1.249830611417482 0.23311242238905527 4.653004049771216 255 255 255
1.1792385715159355 0.1564397723270037 4.721036747747907 255 255 255
-2.903854427411806 -0.22735027735682523 7.684160448096427 255 255 255
0.5492677302003832 -0.5620205115942729 5.278894762682694 255 255 255
1.433603873470463 0.01663993670442748 4.5680754011956015 255 255 255
0.836781825469742 1.2663610776492253 4.8357618800323205 255 255 255
0.7520379972549497 -0.8197001296790971 5.180444263427666 255 255 255
1.5496666257489746 -0.36502257858159415 4.513604449867315 255 255 255
1.2559941693585024 -1.1429047938683683 4.830618983065171 255 255 255
0.7757233139884278 -0.4215129973571986 5.099136650368454 255 255 255
0.5572229145798816 -0.9189314390901188 5.337288964118604 255 255 255
1.2096248136979761 0.2997975812792801 4.683914338484577 255 255 255
1.3229017031850665 -0.5700547543359488 4.718333331643128 255 255 255
1.1151414188509217 0.31747161655789663 4.754818939611447 255 255 255
1.5094221618088184 -0.7494138295409088 4.595806788485002 255 255 255
0.38065647987485995 -0.5947299959707991 5.412895440117882 255 255 255
-0.9201610684875595 0.04287599756101062 5.934529521033464 255 255 255
0.7829885232065104 -0.17027695753615404 5.0605316617341725 255 255 255
1.554799585201773 -0.7811839739292268 4.563663543919211 255 255 255
1.3832942355003908 1.1464267951573397 4.436935983374804 255 255 255
0.9199551553503833 -1.0014852147192952 5.063369784725615 255 255 255
0.8857588025155688 -0.9672220826044934 5.103620794837812 255 255 255
1.5879063735236756 0.9396478282007868 4.304480893063291 255 255 255
-2.1976064780263918 -0.8357774627612744 7.321283687026975 255 255 255
1.512782813616866 0.8672248506260883 4.376100959826168 255 255 255
0.883211894651968 -1.2219778985679088 5.135403050806597 255 255 255
0.49147603951499175 -1.0746711557115354 5.397608311830773 255 255 255
0.7462519668248914 1.2572492537447177 4.910872251395431 255 255 255
1.3612410084458233 -0.014301541477197796 4.607982323579257 255 255 255
0.917825137732665 1.3092731880033988 4.760975835168378 255 255 255
1.4692227040152988 -0.7568501987571968 4.621755130176782 255 255 255
1.3504457014110856 -0.8878141619538107 4.725859359919811 255 255 255
1.3284625785687907 0.9300725189777727 4.5092154470032355 255 255 255
-0.5335182754901675 0.19854501924552423 5.689621818007528 255 255 255
1.2696405042688892 -0.6426007716537289 4.7612721098812445 255 255 255
0.40207389502799085 -1.401074307528221 5.511433945047738 255 255 255
1.5040308753674216 -0.13928847774683842 4.521115570736093 255 255 255
1.3420821418930688 -0.7994814924428553 4.732733422318869 255 255 255
1.538770699211869 -1.4257892280012208 4.653854585863309 255 255 255
0.8035060032045944 0.5606680751125552 4.950119573901736 255 255 255
1.373269682027419 0.17804391244119863 4.579039245818712 255 255 255
1.2146196750199239 -0.8466997562100965 4.8352162882234 255 255 255
1.4994314720506499 -1.1848766623777767 4.658075310542313 255 255 255
1.266689119345209 -0.7631552875442295 4.780007574063489 255 255 255
1.5621409432045195 -0.3963983793361396 4.506466717387139 255 255 255
1.0913808428756029 0.3206548950858204 4.76451731577402 255 255 255
0.2909100495017002 -1.0301681952348842 5.522840335861341 255 255 255
-1.2762158183570147 1.0220034623066305 5.921927634759901 255 255 255
1.4988052478346268 -0.7985730076945976 4.615008276547173 255 255 255
1.005508263042902 -0.5173197949851023 4.93666187921849 255 255 255
0.24313775589461745 0.2985433955884726 5.171439135912933 255 255 255
-0.20614401932286006 -1.1571014442806726 5.392120809172064 255 255 255
1.3144686565240686 -0.19209327286272002 4.678760412238788 255 255 255
1.4133362235320321 1.3447546745538084 4.264726592787711 255 255 255
1.544452957125214 -0.9178512821477793 4.5868990970600185 255 255 255
1.5431681859415116 -0.7234106174078698 4.5692681976798175 255 255 255
1.3996754131143292 -0.14375566645388632 4.615210148439405 255 255 255
1.52144399290663 -0.09959178329982564 4.500939028835919 255 255 255
1.486614626801904 -0.8104932441480651 4.616966135576023 255 255 255
1.1457125256356744 0.7493248187353883 4.688846072076993 255 255 255
1.5259906626359687 -0.3885363621980814 4.531433991076024 255 255 255
1.4288924599487232 -1.2049590686990606 4.709351586010288 255 255 255
1.5613674590611435 0.4702400914971083 4.39540936849207 255 255 255
1.5329116645976946 -0.5413431996960294 4.555650805660927 255 255 255
0.8808723169801688 -1.3264081935798775 5.147861189764464 255 255 255
0.6274707365290534 -0.36258573496190777 5.195448113489114 255 255 255
1.43046379058958 -1.2045740583342388 4.712961684675523 255 255 255
1.4436182886330329 0.6820103564354608 4.457373370903868 255 255 255
0.9935700875772853 0.391420417913482 4.839324814653232 255 255 255
0.0791065139536073 0.9157144418311423 4.769023635379681 255 255 255
1.574572155234783 -0.04509589410752566 4.448470401578518 255 255 255
1.3860776805790544 -1.2328330257756006 4.756315369800035 255 255 255
0.9901932106188499 0.47033676764851046 4.815351722817551 255 255 255
1.965713784288729 1.4770650440813637 4.047870874537566 255 255 255
1.0218240723818999 -0.8772135566840242 4.9784435214560965 255 255 255
1.5116495404455692 1.1942044218310968 4.352648649212488 255 255 255
1.3674273631535119 -0.08935301342833578 4.626756804115164 255 255 255
0.579215071504114 -0.3678187529715602 5.236287218404141 255 255 255
1.362354313452023 -0.18251297600475316 4.6320007289899525 255 255 255
0.4165217571194979 -0.8180475425347921 5.4166659581327865 255 255 255
-0.7446427793158243 -0.26736301919756955 5.851573137651422 255 255 255
1.5843863628788954 -1.3595922796528046 4.60895764302758 255 255 255
0.8754021796937984 0.30950438956467335 4.924654789980636 255 255 255
0.4333271549207782 -0.9232849738833493 5.419993624625838 255 255 255
0.9922135227808775 0.10899066670969533 4.872466749586292 255 255 255
-1.3310976837986939 -0.002744638906708404 6.31624474510067 255 255 255
1.266577619510849 -0.2602578611121586 4.700906329053693 255 255 255
0.4667224439943411 -1.2416117404623228 5.438738008304833 255 255 255
-0.4626686015027949 0.46165580445466536 5.4938083356824645 255 255 255
1.156761890923439 0.5416071277662603 4.690710520755458 255 255 255
1.5427373842432937 0.7826073156260643 4.368508886165886 255 255 255
1.3749408865453465 -0.6742718006388513 4.681218574178662 255 255 255
-0.3367168256656281 0.41488402064138563 5.447389040980688 255 255 255
1.4783540505426458 0.852554289191464 4.410802372766685 255 255 255
0.42270454241024297 -0.7512786060272137 5.39797706613396 255 255 255
1.032226509382464 -1.6292776340953206 5.074322738624147 255 255 255
0.8684030986955292 0.6072140766266 4.888426933078387 255 255 255
1.172123159735771 -0.7095230692931944 4.855925578629038 255 255 255
0.7764099648783105 0.08569030122170701 5.034628612851532 255 255 255
-0.5414960453867673 0.3174369864209527 5.5742761454843635 255 255 255
0.8491322903475692 1.122583193494047 4.844644311162948 255 255 255
0.2872098058751724 -1.5627106334133896 5.608356396608127 255 255 255
-0.40162144873787886 -0.7166504717663339 5.499497188490082 255 255 255
1.562942342911565 -0.20175301797469178 4.479353357691626 255 255 255
0.43116742710525297 -0.7293139430319006 5.391377986199267 255 255 255
0.38015422303712537 0.5467849821630463 4.854121704794094 255 255 255
-0.025967720227917445 0.07622489070049389 5.417027755589008 255 255 255
-2.035756342827274 -0.41659751497412045 7.137195945083895 255 255 255
1.4340122904136057 -0.05687119852532971 4.564713073522993 255 255 255
-0.7540211683888443 1.0502402105424924 4.279913191901953 255 255 255
1.2944596262061276 -0.20071138782073433 4.690968554066462 255 255 255
1.5854996815700397 0.18290031291403466 4.413161933896913 255 255 255
1.067321813312595 1.079124740766739 4.6733764176752794 255 255 255
0.8352620362462256 -0.2434900457496969 5.061565127496607 255 255 255
1.2285640418960924 1.3907868371988856 4.421701447635409 255 255 255
1.2895083007633408 -0.2748613802350651 4.697771103882897 255 255 255
-0.4231888891642152 0.765027951890468 5.264821380891207 255 255 255
-1.6382553960305497 -0.3958854818266145 6.866854388615164 255 255 255
1.4898242537701363 1.4473972833428441 4.199576614447557 255 255 255
0.32207246399015654 -0.9114716102032573 5.491444455435445 255 255 255
0.15222250631448644 -1.3465981773498796 5.6779411374717785 255 255 255
1.445530875870746 0.6161407316774572 4.4550173939251625 255 255 255
1.0554418485684627 -1.456325779280378 5.038713467152539 255 255 255
1.5031135879601254 0.8397736939093922 4.388523851875429 255 255 255
1.4939457684203676 0.833731314819806 4.395055720737805 255 255 255
-0.4379243208740828 -1.8150422250587772 6.0939850325379625 255 255 255
1.1717406463279814 -1.0493151589197707 4.891269263450703 255 255 255
0.2917646526227437 -0.9832272181270943 5.531297338236221 255 255 255
0.29004048624021134 -1.1637364485022434 5.559868433711386 255 255 255
0.8555231457006 -0.697501535165413 5.076159093878726 255 255 255
1.261853744425841 0.777849210847263 4.574773250444921 255 255 255
1.5194410952388588 0.9623697734119816 4.350611074264014 255 255 255
-0.2772367452015189 0.6995648326962264 5.266408237995 255 255 255
0.5456890605778433 -0.632277780915512 5.298808283340644 255 255 255
1.1391079050262758 -1.5795705332878056 4.977611558199514 255 255 255
2.785341144323938 1.5564298126396838 5.06737329601198 255 255 255
0.9157253910538878 -0.8195753792286326 5.059712369539416 255 255 255
1.2439403025730247 -0.7032584806771263 4.792082375345455 255 255 255
0.9126132578460655 -0.10005812212247588 4.979001026597996 255 255 255
0.8557738960222013 0.3668934008584452 4.930532267568696 255 255 255
1.515299468551318 1.1752347367861897 4.339844055484193 255 255 255
1.1754813466076022 0.30559878776108507 4.705750951818842 255 255 255
-0.9795705266688883 -2.3225723020630764 6.633248314375925 255 255 255
0.10748903606407163 -1.9122499913796636 5.7937242465410295 255 255 255
0.6639994403736267 -0.7003009829668189 5.217823526344466 255 255 255
0.09473272272308354 0.2307841565759546 5.297638324331103 255 255 255
1.1335358619995795 0.17020527592916526 4.7579037047612776 255 255 255
1.4319796423420035 0.03789917677441877 4.55427690107602 255 255 255
1.4575436316372643 -0.37069395506674807 4.584643034416996 255 255 255
-0.2372428734070661 0.6607199130221086 5.23663807792865 255 255 255
1.2989074829550542 0.05924661071581052 4.647674570561027 255 255 255
0.7793945219465298 -1.748653786650786 5.276360705358094 255 255 255
-2.014789064562149 0.024860907175864057 7.0623197211456965 255 255 255
0.8094739681121026 -0.8766968287821891 5.143865345803066 255 255 255
0.7420124977586925 0.4199413298185874 5.0210924656411535 255 255 255
-0.1170409767278769 -0.2308881827207244 5.514550856258384 255 255 255
1.1481315858624692 -0.5104900183441696 4.833890882059101 255 255 255
1.3929725419500991 -1.4064951495364146 4.757595262069697 255 255 255
1.1319796459610056 0.5192872941896075 4.6978784435165055 255 255 255
0.5887242965282896 -0.9206782557195958 5.302267747670231 255 255 255
0.38985696963989497 0.43502949698447535 4.926185549674319 255 255 255
-1.536900381166054 1.1646126323801882 4.719512656333505 255 255 255
-0.13215639512686891 0.7356485800120945 5.0373970941901565 255 255 255
0.8554924707652716 0.12203456758857298 4.982302747488315 255 255 255
-0.3458357545690624 0.9873605995833263 4.456052664588829 255 255 255
1.0657403040071805 0.11127596665066714 4.813569246618062 255 255 255
0.22031578828262222 -1.3260625744167334 5.620140799445623 255 255 255
0.44502788210981126 0.5722559454600635 4.794481574551225 255 255 255
-0.011606232377415074 1.3773155616007804 4.762381192229055 255 255 255
1.4855207389318164 0.6660359276265928 4.430839637721549 255 255 255
1.3455516571197579 -1.3920436050450586 4.799433923391745 255 255 255
0.0784175918776901 0.31361545843220967 5.296246923839867 255 255 255
1.6538256412568861 1.359831782547444 4.105385116718327 255 255 255
0.03670274134573738 -1.8377419072984393 5.834796809832725 255 255 255
0.4162532293682404 -1.743864058733866 5.53183868988876 255 255 255
0.6613462081089506 -0.8097977387351796 5.2408914937018745 255 255 255
1.0439871862775298 1.0088903057589165 4.7111496657673335 255 255 255
0.711807140863942 -0.8303548464546938 5.207172542428129 255 255 255
1.1337494359183367 -0.2995702030772932 4.827803622950331 255 255 255
0.5267807497317648 0.7059600476950559 4.81122943587871 255 255 255
1.238120331640096 0.22370406298142695 4.670611325641105 255 255 255
1.2999817404560092 0.3697382830352246 4.600049424427605 255 255 255
0.5728510428843905 -0.6576758563846486 5.278871841360743 255 255 255
1.0380796278899893 0.2826610033152481 4.822429017305897 255 255 255
1.1455417128552858 -1.0593980303378574 4.907943852603731 255 255 255
1.131574399156453 1.044159640528468 4.6375956549301325 255 255 255
1.563661850371704 0.6784141045080374 4.3597968874235695 255 255 255
-0.5628464183931643 0.13735524754022158 5.631916160508731 255 255 255
1.060605028398879 -1.178640147214728 4.979490568126335 255 255 255
-0.17223199678091872 1.255598626014033 4.650429065079982 255 255 255
0.780084745428299 -1.5922162436649174 5.260485069956878 255 255 255
1.5792442113266105 -0.5349757473061219 4.505831148520982 255 255 255
1.4206860252864124 -0.14326897706801575 4.586273167532538 255 255 255
1.3407405139137705 0.21645209408468874 4.59402485471183 255 255 255
1.1347662590164227 1.1720237442284938 4.62180317033908 255 255 255
1.4429713750390116 -0.0660919102656792 4.555539771686961 255 255 255
0.42266220412949707 -0.7660394842850058 5.405127630226548 255 255 255
0.99154573600807 -1.2885978854059381 5.052263340387842 255 255 255
0.9787623664044268 0.06116727324851079 4.873753690229234 255 255 255
0.1615068233576858 -1.490595309921927 5.681590281023431 255 255 255
1.3187720265780627 -0.7584148901702857 4.738304846632028 255 255 255
0.1904235618358762 1.1139094917889925 4.7442844522474035 255 255 255
0.948358292990126 -0.5562470106891843 4.979983392366614 255 255 255
0.8482796514455986 -1.0759114532393264 5.134899871964517 255 255 255
1.0556053988354785 1.2546987994848926 4.669123997827134 255 255 255
0.5461243073762809 -0.6632916602330748 5.3109061579868415 255 255 255
0.9124712663728162 0.6516087499806621 4.871785151206772 255 255 255
0.27322126369541583 1.4604599554632847 4.577693379584504 255 255 255
0.3295983770850125 0.8221014842264681 4.700201500732274 255 255 255
0.5356562815349931 -0.8202111401772755 5.338784893317184 255 255 255
1.3723125024891991 -0.26220815319536717 4.630100008242135 255 255 255
0.8745944556173375 -1.29847344239886 5.1473071161854875 255 255 255
1.4048871802273641 1.080698926229064 4.435474901886109 255 255 255
1.2299585769597399 -0.9147543909354773 4.833423940619687 255 255 255
0.4477326910027019 -1.2872920996249104 5.4499049745164685 255 255 255
1.2820347028300585 0.8788542894394556 4.561995828376816 255 255 255
0.7993187268012228 -1.0016863074805693 5.152825064358066 255 255 255
-0.6613778213376128 -0.410834886164015 5.792869786973558 255 255 255
1.5382406983131018 -1.0273653680482526 4.605151863643307 255 255 255
-0.9628203304945228 0.9859668009411272 5.536121652222525 255 255 255
1.620498702393355 1.2343187757246343 4.262595251761541 255 255 255
1.3771968606644902 0.8162069582642938 4.487445949022108 255 255 255
1.498026536655931 -0.7177084384553668 4.600588690044998 255 255 255
1.127630232321975 -0.18137648198124867 4.8011176501476065 255 255 255
0.2384858797876221 -1.8542365258931637 5.687087432329788 255 255 255
0.5124849751745921 -0.877944211802844 5.357189900930275 255 255 255
1.4349775508416909 0.14452720093353602 4.533683450217718 255 255 255
-0.23124972049850434 1.0233179284756944 4.6067018914195375 255 255 255
0.5047829011924299 -0.4135740567919156 5.3005715920631 255 255 255
1.1540644383155596 -1.309244239736527 4.907492028853176 255 255 255
1.0249347597113936 -0.8942353448582027 4.980798999951512 255 255 255
-0.7223597542392649 0.9511137435188518 5.366213763085485 255 255 255
0.6861568826745827 -0.6168302676835605 5.188928721530357 255 255 255
1.5247543309651106 0.017943488286526876 4.484295626216844 255 255 255
1.0273212642913787 -0.1474659414726091 4.872998496284424 255 255 255
0.7303397832129984 -1.3728560555752571 5.254388852328273 255 255 255
0.7464196414269456 1.037914749974363 4.915330274340028 255 255 255
1.5441175180631201 -0.8202127397239128 4.5765259354001175 255 255 255
0.6110965587618921 0.5833667730498087 5.049559049500938 255 255 255
1.485235434940145 -0.7864911008928045 4.617959600144619 255 255 255
0.3685613173198124 0.7346663103783304 4.679083456615832 255 255 255
0.3766464592213255 -1.417135978383147 5.526077623102508 255 255 255
1.0557921307308804 0.24808740707227778 4.806539538065585 255 255 255
1.5378007121299784 0.6278828832838346 4.38972980882102 255 255 255
1.4386474297479006 -1.3743548037651878 4.733818225498988 255 255 255
1.5825329308585672 -0.6219823387334149 4.516512351911345 255 255 255
1.3706629599454219 0.5063884088018653 4.543856494957739 255 255 255
-1.8019556482732202 -0.5688476994223475 6.998638286893212 255 255 255
0.7323650741258999 0.6124940249605237 4.997803468564301 255 255 255
-0.6480628757897208 1.1195608258163228 4.294684202154485 255 255 255
1.0027396447107846 -0.31199737813084133 4.940166701923924 255 255 255
1.4999059686407046 0.6970119540433233 4.406722625025793 255 255 255
1.3995513453544783 -0.6863825589538034 4.671012812050731 255 255 255
0.39243722833532757 -0.2270693660326486 5.368495519152265 255 255 255
1.4363108553487518 0.2734326454448541 4.516886813884704 255 255 255
-0.027297527351891063 1.0401208198718215 4.855377693035439 255 255 255
1.290802686852859 0.706003639090237 4.572637750230961 255 255 255
1.186395741755305 -0.5084134117905964 4.80930813139055 255 255 255
1.1284647692258138 0.49192884714018226 4.712948052461715 255 255 255
-1.2889227780314818 0.04386467140974995 6.314737156282654 255 255 255
0.684550473602942 -1.1173672672174149 5.2675625739456455 255 255 255
1.3262127385299465 1.1599761811554512 4.484259948335555 255 255 255
-1.3506983200372016 0.05413457680792982 6.2978981776324465 255 255 255
1.0092407383299093 -0.16355769611697343 4.8890856966050285 255 255 255
1.561447685027306 -0.3948853500501725 4.5072785876501245 255 255 255
1.2791141279712803 0.7281976209658455 4.585989224279481 255 255 255
1.448360513888415 -0.9568671128605247 4.667037353771334 255 255 255
0.5375406894212877 -0.3570260675721336 5.261387714972442 255 255 255
1.5934121485691886 -1.0990854871378044 4.569725384765638 255 255 255
1.2987588379832897 -1.3713506472075976 4.8317835765656065 255 255 255
1.6400519876763278 1.1512233573143287 4.274365564823711 255 255 255
1.8760429234049572 -0.7589944677966384 4.762315377554092 255 255 255
1.502795055307912 0.8612595431013199 4.3861359519849055 255 255 255
1.2165604729300417 -1.1917036163588914 4.867775394985274 255 255 255
0.4799828775870673 -0.29275659438904056 5.295365821155735 255 255 255
0.086687754016634 0.8891292018922523 4.851037636215696 255 255 255
-1.2466258005663184 -1.6308150732904023 6.734857109252401 255 255 255
0.5422088728135465 -0.7855906066520664 5.326092549685254 255 255 255
-0.8904153923936906 0.5748079401737299 5.8425457351526395 255 255 255
1.0808047382965822 -1.2255476541642416 4.977527046295312 255 255 255
-2.0853618209167855 -1.0039692442369075 7.2582084283262285 255 255 255
-1.1002494056734446 0.9278267163791344 5.722553362735729 255 255 255
0.9685337013044659 -1.1449961404829705 5.054001414033836 255 255 255
0.09119147091784104 1.416195614182598 4.701641233509246 255 255 255
0.8102941524488511 -0.6803094626279821 5.1062475576586355 255 255 255
0.2540255192037132 -1.9449477005639704 5.691834025581744 255 255 255
0.270948318197398 0.5852038619565074 4.933329748852099 255 255 255
0.11021437681492006 -1.8509961514858686 5.776204407318883 255 255 255
-1.4536808255796274 -0.9975011637518361 6.8132060997030255 255 255 255
1.1620070598514305 0.7625496012978296 4.6579948543416005 255 255 255
1.2773003812841055 0.7166052613304662 4.5821829451474 255 255 255
1.43511620221798 -0.714100994373934 4.644996206307966 255 255 255
1.17693828202682 0.7516690455200955 4.66600905950521 255 255 255
0.5417984930630031 -0.5791874243211582 5.297615674636353 255 255 255
-0.5280843688787271 1.0558237318476 4.316711651433185 255 255 255
1.5788395768096648 -0.5352708200296414 4.507162945563047 255 255 255
1.476570514796071 -0.6220977315192907 4.605915737549566 255 255 255
0.8780637117948714 -0.5812797172146361 5.049094767140934 255 255 255
-0.3143282927211486 0.2233397157674199 5.457778236657949 255 255 255
0.08819951811281425 0.2530039130975239 5.288817380934613 255 255 255
0.49799643031133217 -0.8123896662195699 5.35908621936609 255 255 255
0.5364241383695441 -0.8127224488279473 5.338954952928046 255 255 255
-0.6198528537380728 0.3924469570435776 5.504280710505981 255 255 255
0.7701227319882566 -0.7226248023776092 5.139258428888672 255 255 255
-1.566693279251338 -1.5235606986178887 6.962811800640364 255 255 255
1.2870403602708835 -1.4883141954386319 4.866317528652196 255 255 255
1.3777041700729502 0.22584413962076957 4.560041852615324 255 255 255
0.46945682585840914 0.6094603559002861 4.759962813715597 255 255 255
1.2655957741170614 -1.0465640326730667 4.810009181578116 255 255 255
1.5234870879875748 0.12759271792031163 4.466909526253107 255 255 255
1.3307165740340299 -1.426524084660999 4.8139696325305446 255 255 255
-0.6594509120407328 0.3692402476040405 5.502586481735442 255 255 255
1.3215066713873196 0.4735921146712271 4.573014100388441 255 255 255
0.7276812220437368 0.2168619589751708 5.049031984513952 255 255 255
0.786550254443999 1.046169900975052 4.912347572114273 255 255 255
0.14467918531070476 0.24563562727787125 5.281098513947962 255 255 255
0.40577358457507173 -0.921630573466662 5.446284433016883 255 255 255
0.5046820121671813 -0.5939352357368758 5.32591066249189 255 255 255
-0.8602234257867312 1.398522986160851 4.168374270354628 255 255 255
-0.8130084974476797 -2.08297659684673 6.49345945187189 255 255 255
0.9166567074073436 -0.05390611949361697 4.953793842637533 255 255 255
1.5242751150719698 0.14074338564759825 4.470356364059667 255 255 255
0.8939557496328241 0.8794737602424035 4.835905572321035 255 255 255
-0.9145936314790323 0.9262018313492688 5.601743495168279 255 255 255
0.8800246531651336 -1.491730694166669 5.167811576644868 255 255 255
-1.8495992127629923 -1.9714061209453022 7.224668062545704 255 255 255
0.9839704258545253 1.0354504900665684 4.68268608324735 255 255 255
1.4691542298007578 0.5016505622736354 4.455991228238445 255 255 255
1.4189436389266958 -0.1993130501127193 4.593927044652444 255 255 255
-2.1503666366741414 -0.7434393042840716 7.269294674597621 255 255 255
1.260546925743571 1.1487418894967754 4.52873297941748 255 255 255
-0.542392744982412 0.4194046732338415 5.500562560659537 255 255 255
1.4451764169413148 -0.8588225980819444 4.650172389159897 255 255 255
1.2901468161849055 -0.9183297398881006 4.7696717277785075 255 255 255
1.322751822985877 1.3662268933463064 4.346888350837026 255 255 255
0.06704025439614895 0.10280725281960303 5.344815090770913 255 255 255
1.4392843726033895 -0.08521765460158033 4.559883131592034 255 255 255
1.2761648301868187 0.30404010640034884 4.6295686094690796 255 255 255
1.0419911848679215 0.6586439966403647 4.738989169413799 255 255 255
1.838768855194636 -0.6805943899363859 4.740397569904111 255 255 255
0.74991658105858 -0.9539999309838595 5.186137984091398 255 255 255
1.3585835518691838 0.47495163967257725 4.539556715979113 255 255 255
1.2677466779929931 0.36040343737459607 4.631195789527379 255 255 255
0.8070105654329246 -0.13338839260524418 5.041640021845756 255 255 255
0.207559507913438 -1.225024343741102 5.6262070727255065 255 255 255
-2.0893833202461125 -0.10136109422330064 7.140307761083043 255 255 255
0.9141016846746263 -0.8461184084364803 5.0593860167224225 255 255 255
0.12401777524405802 0.8056325544057897 4.853566759895667 255 255 255
1.339376185432722 -0.2594124593162403 4.660847709656558 255 255 255
1.1248570234113888 0.4687584116168885 4.709385724054966 255 255 255
0.3368076980214959 -0.7764304038775827 5.47310529843848 255 255 255
0.5395728968064687 -0.5505529875357733 5.286224178358229 255 255 255
1.5224739508290859 -0.4011340226220426 4.53809850979925 255 255 255
1.0743769154150034 -0.6879233626602214 4.923598697587073 255 255 255
0.9954926888795245 -0.9101477841235167 5.001276370316252 255 255 255
0.09243484210053657 -1.3086305244268868 5.708646605701989 255 255 255
1.6466281027808087 1.1048025300219533 4.284238935292908 255 255 255
