ply
format ascii 1.0
element vertex 858
property float x
property float y
property float z
property uchar red
property uchar green
property uchar blue
end_header
-1.1184696128 -0.560551985052 2.69490488807 115 93 114
-1.05587441124 -0.433479448763 2.68159794529 57 48 75
-1.24517292242 0.138802742111 2.6795735262 122 110 132
-1.08020600973 -0.238542770608 2.66961728685 117 100 118
0.461932800466 -0.81827257812 2.43315067198 94 80 105
-0.722942710982 -0.631409814854 2.62868248921 137 105 120
-0.806847733685 0.0822689696551 2.60701248927 67 49 61
-0.341794907477 0.0259766872004 2.3909231618 135 79 88
-0.849482001886 -0.614615525843 2.6557258126 122 101 120
-0.452174338662 0.164055612762 2.32028585738 151 103 125
-1.16201403191 -0.65185010058 2.71090809009 123 99 123
-0.485961478231 -0.685767999386 2.5906054762 131 105 130
0.57991060609 -0.0589886222666 2.37040186179 131 104 119
0.914497251539 -0.30118995491 2.31973481383 141 114 129
0.291178751875 -0.7395507693 2.45512269025 143 118 137
0.916638289581 -0.225141660678 2.31612499445 107 80 97
-1.27050045041 -0.273954860736 2.7099132927 112 88 104
0.646969023191 -0.692145111627 2.39527633287 78 60 76
0.378771227779 -0.839985827258 2.44829467784 119 91 106
0.0189386313464 0.0326213797215 2.328120114 61 33 45
-0.773772932943 -0.711855630628 2.64480112907 131 106 127
-0.763484192485 0.212959004753 2.36881461849 129 77 90
0.348485315729 -0.477964896796 2.43189102663 151 128 146
1.01251307257 0.0327053377281 2.28369791506 123 94 116
-1.09938328367 -0.383911450136 2.68142730136 117 99 123
0.678687319585 0.206335063823 2.34187911052 58 44 69
0.530713902716 -0.623780890114 2.40551241757 139 125 148
0.89504877018 -0.0321147548143 2.3054488915 141 118 138
0.751862995794 -0.00835124729509 2.332620329 152 129 145
0.399017693317 -0.83845851387 2.44428826268 128 103 122
0.956488657506 -0.313254008936 2.31252149816 111 86 108
0.638942838097 -0.391426549888 2.37930421234 101 73 96
0.691949120273 0.390759512883 2.32398839742 98 75 103
-0.461937441156 -0.168429946386 2.4774541928 126 70 83
-1.22696696845 -0.264348182107 2.70043932602 76 65 82
1.05827042468 -0.58057300484 2.30830412724 140 126 151
0.630900167813 0.111025955216 2.35164165443 88 64 80
-0.523105365845 -0.136357883826 2.48978691678 136 76 88
-1.08360992989 -0.251247009862 2.67151415722 105 88 106
-0.45251080936 -0.0515397367212 2.44036601576 142 86 99
1.01479804696 -0.250390302475 2.29821454217 107 82 103
-1.25259316685 0.254513930858 2.67293533582 101 84 102
0.765208982822 -0.156545824953 2.33653505032 123 98 117
-1.16439110766 0.329019248576 2.65443322811 118 110 134
0.514120726213 -0.347258585279 2.40978877119 140 113 132
-0.651326983428 -0.310064728651 2.60234943148 141 119 140
-0.761012174064 0.23526850718 2.36885938224 119 72 78
0.691590007878 -0.852364239341 2.39327021012 126 110 136
-0.676901290959 -0.593490227029 2.62092696912 115 87 99
1.02334293942 0.347427732417 2.2645908667 123 107 120
-0.948098992414 0.0708219254417 2.63379823784 79 62 80
-0.950053775864 -0.717019937027 2.68393603896 127 101 126
0.63978670762 -0.846013755699 2.39994118734 143 128 149
1.01094054854 -0.0582616776025 2.28897973238 127 105 126
-0.99463749879 0.143065535024 2.63882464719 61 44 63
-0.0102711745386 -0.0690860982983 2.3351252782 109 71 92
-0.462477888976 -0.118596293571 2.47727485094 126 75 84
0.346505178448 -0.0756543248902 2.31822856442 111 64 74
-1.24228324251 0.478202534399 2.65875570679 105 95 120
-0.238519983753 0.246730950672 2.27116569188 159 115 138
0.897267864359 -0.125927041365 2.31320663024 145 121 134
0.877870348321 0.198909567502 2.30215430948 116 88 102
-1.19214106957 -0.498904274626 2.70436250634 131 116 135
0.757050283153 -0.0337392035329 2.3356312574 97 74 92
0.557936571111 -0.594383003224 2.4040570275 131 97 114
0.23428086385 -0.340081039919 2.32589359196 69 33 33
-1.14225319447 -0.299465222257 2.68420185092 89 70 98
-1.238079787 0.0601582936148 2.68316153623 91 77 102
0.433945597252 -0.777296373708 2.43041307746 146 128 150
0.491388595813 -0.647397601732 2.41872631043 114 97 116
-0.955182788465 -0.438479510423 2.65996170823 87 72 95
0.706346128993 -0.381949580716 2.36414317374 116 91 113
-0.817210686966 -0.0209431522364 2.61364375799 77 63 76
-0.759030662919 -0.51063640621 2.63417781735 125 106 126
-0.676276681434 -0.0178686926647 2.49810133796 66 35 43
0.449347488534 0.0415545546393 2.26008662394 118 89 107
0.991247719697 -0.0547943486529 2.28975458309 129 105 127
-0.472917465844 0.362310137235 1.80971078335 110 60 72
0.250923966995 0.196553359653 2.19402495491 130 92 117
-0.556176598993 -0.688994021698 2.6025249971 136 108 123
0.136572658807 -0.655442329216 2.33433715007 118 71 87
-0.732287223063 -0.534808980088 2.63545564921 130 109 126
0.572842096891 -0.571153830196 2.3964477238 131 95 107
0.761454901478 -0.756831121686 2.37347327541 140 121 141
0.436816187166 -0.305468553076 2.40763526353 107 72 92
-0.316333829095 -0.508364243278 2.36221390538 101 50 65
0.0473445792316 -0.49382968618 2.34171827582 93 43 55
-0.970751332774 -0.4002632525 2.66266048883 120 101 121
-1.05421137418 -0.669832081313 2.69100806864 110 81 103
0.247796502914 -0.499066283453 2.28939201634 110 70 81
-1.10144620635 0.486785288683 2.63484417179 97 88 105
-0.905694974653 0.484299156976 2.59605699542 61 44 50
-0.0388260909466 -0.557856903161 2.31641210221 36 21 26
-1.22735878271 -0.4661891289 2.70601006246 134 113 132
-0.505488390588 0.279019768831 1.80336842413 112 65 73
1.04861119482 -0.309128230195 2.29433107559 117 82 102
-0.0500805054453 0.122989818722 2.28988532755 159 98 113
-1.14532274584 -0.741281643827 2.71568815744 116 97 117
0.56577619743 -0.593834903029 2.40267191622 135 115 127
0.0707721896304 0.014549163103 2.31801921319 128 74 90
-0.300311910829 -0.117226789277 2.39088574373 131 75 86
-0.151412090781 -0.434255660783 2.37697283109 131 79 92
-1.06425206436 -0.525454677836 2.68858379059 95 81 96
-0.752287934677 0.154938110107 2.41615245342 91 63 62
0.76579099243 -0.127071283828 2.33928570181 124 97 114
-0.586136935486 -0.374783553203 2.59070483191 121 90 106
0.794115118257 -0.00709992926194 2.32881199311 140 116 138
1.0077314305 0.449160101302 2.25947312514 129 121 142
0.606906006552 -0.513485284339 2.38450384951 133 107 132
-1.0333894945 0.363158413381 2.64114815972 106 103 124
0.882331284221 0.419947890148 2.28473685664 149 128 147
-1.23894255675 -0.541576934268 2.71697199393 102 84 98
0.752602552065 -0.338139764416 2.35090566371 126 98 120
-0.23471268428 0.266360056629 2.27387252647 135 108 125
0.908209158583 -0.0782198630415 2.30911536727 106 84 97
-0.204847037811 -0.19683661121 2.37607476948 176 159 143
-0.367084499098 0.421186554305 1.78723999774 147 102 122
0.203033529262 -0.297792014993 2.35439549118 74 44 54
0.68789361964 0.460626334205 2.3226510682 142 118 134
0.00323505115051 0.154246790902 2.27120343395 127 75 88
0.702176476472 0.0484552533553 2.3426480406 132 133 154
0.688978574278 -0.809544903808 2.38908120182 135 120 151
0.844952468373 0.229613851326 2.30060204302 147 124 142
0.711659915082 0.453998933519 2.31361919068 126 92 106
1.03795219632 -0.335936141423 2.29710388003 123 94 112
0.756324388024 0.322559648099 2.31566639596 117 92 114
0.931735994979 0.189496309948 2.29350604139 122 95 112
0.442830723246 -0.281938427325 2.40842449674 114 77 94
0.466205123962 0.0374127328709 2.24813833969 147 99 115
0.898508141711 0.0332667676765 2.30381450958 119 91 113
0.937521952471 0.356568100824 2.27868005031 133 115 131
-0.297407792663 -0.708365026096 2.3247287949 85 50 57
0.0571914944776 0.0786642431741 2.32016695695 140 84 93
0.928406613225 0.169993795085 2.29538738743 142 118 134
0.69163910095 -0.276609515911 2.36187589128 135 120 149
-0.707638242395 -0.331052631557 2.46552391366 135 113 126
0.457822576611 -0.754165640589 2.43153545114 134 119 138
0.866669667805 -0.655210066559 2.3503327524 128 117 134
0.304650052805 -0.200426378138 2.33297538254 130 80 91
-1.17916323218 -0.392337365351 2.6955595317 93 79 104
-1.24188576896 0.157840062869 2.67858039284 105 92 122
0.523318362927 -0.574320255744 2.40675514267 138 116 129
0.259064379061 -0.633889164055 2.45854479687 142 113 135
0.389274503709 -0.480335997939 2.42351848386 134 106 118
0.963891997941 -0.479551694506 2.32412469793 107 82 114
0.550188876233 -0.844245277059 2.41984518144 96 78 92
0.782356505712 0.00282917200625 2.32728738918 132 102 114
0.630444704382 -0.715449334207 2.39382774839 146 129 148
-0.902133965565 0.508916913289 2.58235257285 60 59 65
0.976972350102 0.396405928037 2.27171526753 132 111 126
0.0120783170425 0.0164183569784 2.32867480362 139 85 99
0.9423457591 -0.538603425496 2.34211857084 135 123 147
-0.529945806211 -0.719434812662 2.60303344689 113 83 107
-0.846274023343 -0.720834194131 2.65820859657 94 74 99
-0.502560721914 -0.341226282696 2.44365224991 63 35 47
-0.686296720764 -0.525375472929 2.61900231341 112 81 96
0.427177647253 -0.0519341898959 2.28581219026 94 48 51
0.244927591152 -0.850177908021 2.47072343062 134 112 133
0.875889732074 0.109511073636 2.30798976068 107 77 87
0.903607512855 -0.4725539852 2.3306512378 140 125 148
0.0538802149184 -0.0495351543467 2.32345719019 144 88 99
-1.1544452959 -0.401249887007 2.69099454392 94 79 102
0.610273971582 0.101414609269 2.35327041881 86 62 84
-1.03446446167 0.496578862977 2.61773215606 52 52 64
1.01355447786 0.183616988034 2.27582644854 124 93 108
1.03193415804 0.0179839055938 2.28239395179 139 116 132
0.685233290346 -0.652262389485 2.38197933953 136 113 133
-0.181975096479 -0.472029208891 2.38591871122 132 80 92
-1.00771312723 -0.00400549281514 2.64975525195 126 109 125
-1.11410770452 -0.560617974772 2.69292519728 121 99 112
0.899770255535 0.457091182331 2.2789534949 142 125 143
0.826370843238 0.403195334698 2.29513177843 125 107 133
0.597992185879 -0.823341751767 2.41041388768 112 84 106
-0.027942607952 -0.549892971866 2.30279011544 112 65 75
0.800851126373 -0.0382730948735 2.3281444444 121 92 110
-1.18726989 -0.410088891104 2.69778376044 91 80 97
-0.829711634776 0.046234646234 2.61209003525 84 61 69
-0.522063435747 -0.152554429609 2.48863988843 126 72 85
0.841682198134 -0.669528095497 2.35353461504 117 95 118
0.742271429157 0.366556881515 2.31419121482 145 127 143
0.696854012995 -0.606928002732 2.38054366192 102 77 99
0.835451650938 -0.844687588731 2.36747630197 94 64 88
1.05687260339 -0.519341474119 2.30500146172 126 103 123
0.0480508277607 -0.50817723078 2.29393305626 99 56 73
0.979803151761 0.156806972303 2.28156593923 124 93 109
1.08731296316 0.49189175037 2.20530167147 124 115 134
-0.30095855072 0.270953310628 2.25368261635 81 58 66
0.676516736784 -0.49316976596 2.3737398726 135 112 130
0.77458740902 -0.444428962781 2.35489664846 84 67 86
0.430794710936 -0.779775661641 2.4340188775 141 122 142
-0.221624781339 0.358059022521 1.76420347822 120 68 81
0.479628646676 -0.661381579623 2.42480571247 143 124 144
-1.15605963798 -0.523524662783 2.70499571913 105 91 106
-0.142997225445 -0.656863934798 2.34177542858 113 67 80
0.872402087028 0.227333163199 2.29764965255 103 79 93
0.945523922105 0.432596230493 2.27587041862 124 100 113
-1.04871351231 -0.530360916759 2.68096265254 109 91 105
0.861878549215 0.222489928435 2.30110482606 132 114 128
-1.22206735524 0.323389119557 2.66519251873 116 112 137
0.510686422306 -0.866494244012 2.424761908 132 104 127
0.952246455175 -0.0673280142982 2.29923738136 96 71 93
-0.982911538858 0.508297359634 2.59877894513 73 70 77
0.841342938539 0.245102493195 2.30262334615 124 96 111
-0.9032042752 0.118666995351 2.62076795231 77 60 76
-0.482394140652 0.383156746969 1.80754481207 141 116 138
-0.827362792193 -0.74034093034 2.65865878435 129 114 133
0.818466651402 -0.6710694398 2.36369920592 79 61 87
-1.14971793488 -0.515815741277 2.70032404362 82 61 78
1.06070017093 -0.375068431413 2.29979904244 121 92 112
0.709573653123 0.441144658978 2.31677599481 138 109 127
0.333603764265 -0.763094535004 2.44987133513 136 103 122
-0.615261300149 -0.649882001357 2.6124945702 146 115 131
1.03748235503 0.36482969506 2.25913360646 114 88 101
1.03930136292 0.0374160942031 2.27946032328 129 108 127
0.938532601681 0.171419211766 2.29018183163 124 106 122
-0.316864053264 0.232666802611 2.29122429233 144 105 126
0.742556535201 -0.420064981413 2.35826799599 135 121 147
-0.69387875682 -0.662681785005 2.62610169244 121 89 104
-0.990781008435 -0.265141717449 2.65818396743 117 92 113
-0.224892749194 0.387094914001 1.76262776923 115 58 73
0.528900053297 -0.473909495547 2.39950435715 126 94 115
-0.463787649735 0.205590780985 2.3198187256 149 98 115
-0.482818683783 -0.636499012185 2.5908975353 67 51 64
0.302474648201 -0.718007247831 2.45344650179 132 106 131
0.421903346106 -0.783672188862 2.43820691921 117 92 114
-0.362062686935 0.316190985453 1.79079369902 89 38 47
0.971429447954 0.37159980835 2.27156551858 109 84 105
-0.149245368625 -0.0355347580694 2.28246774393 209 206 201
-0.579319357217 -0.642020803855 2.60664947643 137 107 119
0.57531093057 0.0917775948166 2.35890089437 129 108 123
-0.998824977632 -0.439360433131 2.66848206795 87 71 82
0.679111433906 0.100038451948 2.34161220539 80 55 74
-1.07586149023 -0.24606034374 2.67269448435 140 121 143
-1.04632894782 -0.0428297252011 2.65558050571 129 106 122
-0.878765432074 -0.104902177354 2.6335604963 88 68 80
0.0356915841919 0.025621667946 2.32520844625 131 75 86
-1.14758120398 0.254359291476 2.65443149298 130 118 140
-0.921027270293 0.0182746711657 2.63090741482 73 56 74
0.882704515897 0.0294861344376 2.30786058206 120 100 125
-0.769926067772 -0.603167776836 2.63887551995 135 104 120
1.01576346877 -0.154232308221 2.29351499336 134 111 129
-1.18300663372 -0.540974063733 2.70533126807 136 121 142
0.259552382416 -0.855137973758 2.4676609721 97 72 93
-0.842146630376 0.0714644568196 2.61549707416 100 83 99
-0.786009499625 -0.288188558917 2.62411777346 106 76 86
-1.19669453292 -0.209750112619 2.68923583505 113 95 121
0.825464363691 0.22520254 2.30850852296 80 57 75
-1.12033395416 -0.630114856321 2.70108817796 130 108 120
-0.236561463438 -0.68842095793 2.34817636367 94 53 59
-1.16567841784 -0.279123533865 2.68888850337 124 100 116
0.640640830821 -0.43927876671 2.37790112779 101 76 106
-0.300235188086 -0.0239523478166 2.38581631688 124 63 78
0.977387985174 -0.0302035473857 2.29500574819 115 89 116
0.774463964635 -0.148174301836 2.3385383108 119 95 109
-0.887738634325 -0.165423470467 2.63575292669 83 60 80
-0.623864951344 -0.639563843337 2.61564583142 136 108 131
0.341537098378 0.185427580802 2.17519042052 81 49 54
0.706766033924 -0.603691526652 2.380365696 139 126 152
-0.322720694382 -0.506406897868 2.37794801557 93 42 49
0.0503414561919 -0.315995241038 2.37694791408 139 90 109
0.971707026419 -0.794449589623 2.33490085114 114 86 111
0.0343246231335 -0.482351354508 2.28981852366 94 44 56
-1.20891006497 -0.451950681767 2.70433355249 128 103 122
-1.13380779084 -0.108602394133 2.67959786848 60 51 70
0.612072336334 -0.750073211066 2.39823404056 107 88 108
0.837269095617 0.369320731036 2.29622461607 133 116 135
0.747916425786 0.132913722932 2.32021866293 41 79 190
0.599984707286 -0.756161250418 2.40631617962 97 68 99
0.11429573189 0.193048278322 2.21989417005 148 109 130
-0.108474082302 0.370484873648 1.74460762501 141 93 117
-0.874984412116 -0.270451182154 2.64821397528 126 112 127
-0.863014137694 -0.759986803349 2.66417484496 130 108 129
-0.783994376794 0.512921682299 2.32546040262 88 63 66
0.905001003577 -0.789883873329 2.34967887303 133 108 129
-1.27607539235 -0.325216142892 2.7088436152 134 111 127
-1.24707145324 -0.346548536702 2.71077027581 114 104 129
-0.688947683749 0.0678842943359 2.45009652406 86 45 53
-0.699513750321 -0.290317008645 2.60365673806 134 103 118
0.392817501987 -0.849105317678 2.44500898106 133 106 125
0.463005447622 -0.500808206523 2.41093057536 117 93 117
0.443078522326 -0.817346449112 2.43115428976 148 135 161
1.06245280095 -0.754421799133 2.31703566602 110 77 104
-0.337613083851 -0.044979825224 2.39416862109 63 33 41
0.442332379339 -0.726655551016 2.43031537853 136 120 146
0.484967454614 0.236926843597 2.15015669245 104 62 72
0.933997188677 0.0186840525229 2.30126777605 143 122 141
0.942546020089 0.151478245013 2.28408193543 143 120 136
0.885763896351 -0.528980499247 2.34006665007 132 108 134
-0.150830969629 0.419922811838 1.74807736756 144 107 125
0.726228671161 -0.848665847208 2.38343797852 128 110 134
0.581876046205 -0.0673500031463 2.36602313552 102 69 80
-0.223075464222 0.379018216008 1.76336805477 121 67 83
0.630161062913 -0.23924410009 2.36715484571 113 85 107
-0.583557346917 -0.703229631172 2.6085545525 138 114 130
0.981303803381 -0.711625682264 2.32909694579 122 96 123
0.882139458888 -0.0429029248245 2.31290877775 125 103 126
0.226944221187 -0.463988799021 2.31428760918 61 33 47
-0.00361118671827 -0.245133874709 2.32848296737 109 64 71
0.778197401661 -0.363068309044 2.35288585384 72 54 70
0.2569576978 -0.294487243466 2.3439848516 99 57 61
-0.839673344286 -0.579049724544 2.65156455394 132 123 144
1.02676482757 -0.260786921736 2.29604278788 117 88 110
-1.11758316442 0.475286457004 2.64053657216 107 98 125
0.829718036693 -0.637444473136 2.35763714128 84 64 91
-0.245869735884 -0.64728034485 2.20759381126 58 28 36
0.704507880072 0.0108419218629 2.34645314346 94 68 95
0.663371442462 0.165646497465 2.34452319353 87 67 95
0.925569387463 0.329412827728 2.28515580475 114 87 96
-0.894155191504 -0.134308935442 2.63194298406 123 99 113
0.799047317265 -0.218208112835 2.3372272481 108 80 95
0.0556413611904 0.0878395380901 2.31815370562 130 70 82
-0.488714814564 -0.466705244648 2.44231766463 119 74 81
-0.779051183609 -0.643022134915 2.64349536809 138 114 130
-1.04566178908 -0.024287723207 2.65454264164 126 112 125
0.840380942364 -0.598620989329 2.34474613103 132 115 133
0.388322660872 -0.782293235542 2.43831561323 136 120 146
0.235041790871 -0.323849058372 2.31917440457 87 42 47
0.752810780494 0.162309299858 2.31119679443 73 114 206
0.70874674275 -0.833976290769 2.38755643547 130 113 132
-1.06525669356 -0.442675269586 2.67729899788 117 108 137
0.701443847648 0.0680410368611 2.33754006725 143 117 128
0.973749102135 -0.109223246545 2.30003621271 119 104 125
0.665191085939 -0.792626112389 2.39059845812 150 128 149
-0.897406248803 -0.25312532221 2.64237338392 125 110 131
0.858365828882 0.433405640142 2.2905975437 87 64 84
-0.935709660113 -0.603475663783 2.67008886523 78 70 85
0.930775425487 -0.580388677235 2.32934609537 142 119 137
0.258578633504 -0.862722472788 2.46950940085 139 120 142
0.0658648040305 -0.0463599496998 2.32219461777 70 38 51
0.720823802469 0.268515738482 2.32643139007 138 114 127
0.496498789165 -0.640860419144 2.41602495035 131 114 133
0.95820992129 -0.0508665435822 2.29953154135 98 73 95
0.91200758127 0.0905450425534 2.29869406282 140 116 130
0.656939811016 -0.681721133999 2.38608877578 133 114 136
-0.999866546442 0.400046972064 2.62123481686 74 65 84
0.999779399421 -0.761200485384 2.33191882474 115 90 122
-0.942083765312 -0.0334965566679 2.63435527388 110 91 111
0.875679982853 0.230796553668 2.2988433859 105 81 95
0.6081482641 0.0782949902352 2.35777778268 116 88 110
0.220955171829 -0.388560849649 2.32494338147 75 49 62
-0.801828408258 -0.338634941634 2.62968359649 131 113 129
-1.17488687698 -0.203112505251 2.68508180148 109 90 110
0.42902445538 -0.0243231022771 2.30143729574 66 29 37
0.865693467369 -0.647946373434 2.34923298692 100 76 98
0.740050681826 0.184122108184 2.32163259224 44 91 195
1.00546662918 -0.666776417381 2.32479363697 129 96 117
-0.0577063051517 0.256615692222 1.71634380684 127 74 92
0.804478632755 0.31558629197 2.30940066118 134 111 131
0.785634390186 0.00393348213887 2.33171651325 130 99 114
0.384212211815 -0.43327538169 2.42266276394 139 112 131
0.34193297478 -0.442034611529 2.43751829884 130 111 133
0.0045524716361 0.351290137955 1.72556994995 99 47 60
0.951385959537 0.284688946523 2.28123803666 123 95 110
0.995213901156 0.344837539355 2.27638591004 116 106 131
0.664490084455 -0.819839715248 2.39751483651 103 75 100
0.956006325161 -0.683692003304 2.33559150214 92 76 102
-1.1993194041 -0.00727688493639 2.67754668936 118 103 132
-0.737123397834 -0.536724690139 2.63615759239 133 106 121
0.851453140477 0.393470355551 2.29301251698 129 111 133
0.966606926459 -0.195952900587 2.3056322101 123 104 126
0.864726860648 -0.0388455643407 2.31490373069 111 85 114
0.349161823635 -0.421657406743 2.43183821465 113 89 111
0.955841863099 0.0954345029051 2.29009998327 122 93 111
1.03880540378 0.0133931131083 2.28227513888 113 90 108
1.0633047389 -0.205274837999 2.28755981337 127 99 121
-1.12268899332 0.462448135214 2.63933517539 82 66 92
0.366540517584 -0.660395958524 2.43531290238 146 122 148
-0.313998258761 0.0282532325393 2.38758353916 57 27 37
0.447315153672 0.193820302715 2.15857778438 109 67 89
0.643361291096 -0.207095657459 2.36613661969 123 94 112
1.02478807977 -0.689847042311 2.32123664793 138 116 137
0.69854881295 0.156314489571 2.33071114899 94 74 101
-0.886234716113 -0.257590798713 2.64258936375 68 62 88
0.775330329768 0.167112272234 2.31689410969 145 120 139
0.68525323066 -0.0856354860362 2.3504143588 125 104 121
0.975015583315 -0.605780278076 2.32934276766 136 124 148
0.394272914609 0.131430656247 2.22260055476 172 118 134
-0.920681698223 -0.451362837653 2.65533992562 124 100 116
-0.812300609687 -0.462300895114 2.63719680859 120 96 110
0.954867289039 0.115406512825 2.28406218662 124 100 114
0.538041955603 -0.434877688619 2.39590519931 140 128 152
0.374203497708 -0.813467322244 2.44280135631 144 125 153
-0.893225328257 -0.465551173238 2.65157876854 128 99 119
-0.980834549265 -0.386414963623 2.66267534614 125 101 123
-0.973994795805 -0.17286512741 2.65425640553 131 109 130
0.603093634196 -0.591334857856 2.40134252887 132 103 121
0.720589056677 0.0390804666598 2.34317696823 145 121 137
0.628768743809 -0.673613183076 2.39423838329 126 109 128
-0.682137048826 -0.0209991994737 2.49637408945 108 57 64
0.802420941566 0.0683723869089 2.31544463839 110 80 92
-0.744651550273 -0.520440930957 2.62784029152 97 70 79
0.209880962667 -0.16219236415 2.35891660444 144 97 117
0.620934647633 0.0881397435614 2.35282556656 135 117 139
-0.992621107462 0.0840316090189 2.63825746223 87 71 98
-1.07277997476 -0.558662973932 2.68570517276 109 85 98
0.854899262562 0.496329229327 2.24761449312 125 122 149
0.426272894848 -0.492842607235 2.41705556781 143 118 139
0.413421547704 -0.562868678553 2.42667567784 138 115 125
-0.0563024999684 0.228608219595 2.24431926574 118 86 110
0.000495428781595 0.087963406036 2.32610269406 130 69 85
0.439549005854 -0.505932691432 2.41545928504 139 114 133
-1.18157175239 -0.435809126963 2.6991703111 39 41 56
-0.333680604911 0.277946261277 2.25831601862 121 77 92
-1.16276037682 -0.740437354751 2.7150102577 127 102 123
-0.812200539574 -0.0448211645821 2.61802396151 90 83 101
1.06195065242 -0.403459212382 2.29935423394 132 100 123
0.500061230357 0.496980589181 2.09769547754 134 86 100
0.0203436515285 -0.64988650128 2.31435080469 115 69 80
0.81288855208 -0.154623056249 2.33198222936 121 94 109
0.757905338918 0.0723171958466 2.32924210017 91 68 88
-0.764081209662 0.18063036467 2.37261989441 57 45 45
0.608930844156 -0.274623024765 2.37730973223 129 116 136
0.503983070338 -0.850054580262 2.42669001362 146 123 143
0.366530578471 -0.644790025242 2.43612844416 120 86 102
0.438120147049 -0.549376195208 2.4255601542 128 97 113
-0.990274191597 0.0681690375293 2.63956606567 94 71 91
-0.196972865129 0.222683963842 2.27488510598 107 64 81
0.453296720227 -0.474023728309 2.41302271297 139 117 138
-0.21135012081 -0.370297686142 2.38736266213 62 29 40
0.225821522914 0.0287558025018 2.34902430684 91 39 51
-0.910589937761 0.238288904004 2.61734970953 88 74 91
-0.490000701545 0.523230095472 1.7759912651 118 77 91
0.0515029668051 0.0107403451193 2.32505243119 140 83 98
0.715820898237 0.355323921814 2.32229413627 137 121 150
-1.19417711299 -0.353561971473 2.69998452373 85 79 105
-0.277138219894 -0.195692486097 2.39152415969 119 68 77
0.956168769049 -0.483342441888 2.32914415405 138 118 143
-0.454423248661 -0.436082361387 2.46867357906 61 29 34
-1.18058267373 0.266376479753 2.65962823794 99 77 90
0.967298404663 0.389935763049 2.27554278158 99 79 106
0.791663809952 0.244254697967 2.31234191656 130 100 110
0.876576179215 -0.6365404236 2.34907438535 88 74 99
0.52237111688 -0.672676143275 2.41356300708 122 105 123
0.864799165643 -0.509028011847 2.34674552616 146 126 151
0.87508864189 0.258719718856 2.2941178477 150 133 152
-1.14590200127 0.0819677949772 2.67202983345 63 56 72
0.0426196146076 -0.210094289929 2.32492062373 71 32 37
0.904357985588 -0.760546627223 2.34804516898 142 120 141
-0.20469911592 0.226885849662 2.27366277274 89 45 60
0.492715834098 0.533703371898 2.09973881569 129 90 108
0.798239667835 -0.181158289466 2.33456856625 125 104 123
-0.179570412316 0.161019923168 2.26957450013 157 116 134
0.873941877168 -0.313199834937 2.32418541836 126 94 115
-1.01113883475 -0.0570722525736 2.64882275213 107 88 107
-0.449184811421 -0.374298072548 2.47308748361 62 31 47
-0.791038607178 0.24602651697 2.37128752953 82 56 55
0.660158954857 0.153423047433 2.33986187108 84 63 78
-1.05106517006 -0.0121487521508 2.65742695666 109 94 113
-0.859924527633 -0.72723458395 2.66092508461 116 100 126
0.806025118532 -0.0710622742663 2.32777522009 124 99 120
1.05041606582 -0.762150038979 2.32038225242 112 87 117
0.982810557123 0.0902224406838 2.28806689366 124 95 113
-1.18441253757 0.0750754104834 2.67165221926 109 101 125
0.622095430867 -0.570418370163 2.39018076932 125 96 116
0.330676853339 0.201536631313 2.18252407575 130 82 98
0.697084365222 0.198762569569 2.33679702787 106 76 86
0.958507044669 -0.555118353343 2.32739610099 133 110 128
0.818596470676 -0.294285465833 2.33798434619 138 113 134
0.468480457836 -0.641162366883 2.42067204406 133 110 128
0.561308221157 -0.57435049339 2.39889233317 136 109 128
0.305974861221 -0.640715358862 2.451887624 125 92 109
-0.674104769012 -0.362622485723 2.60823775845 127 96 112
0.875819417978 -0.289863192286 2.32848124955 112 84 98
-0.0436550730697 0.24775040021 2.24155419325 146 101 124
-0.616403107575 0.224751346279 2.34325053066 121 77 90
0.368658459845 -0.866857937641 2.44838727895 132 108 124
-0.979932839444 -0.696360055041 2.67762682645 119 92 111
-0.703279970611 -0.282925227114 2.60849783135 127 94 113
-0.279120213645 -0.496648258674 2.36209404088 134 82 104
-0.0137179259117 0.26041524129 2.23591833956 123 81 93
0.214855778447 -0.262665903661 2.36178454163 136 85 100
-0.444636282751 0.0279725047668 2.46728629835 123 65 77
0.724546900281 -0.67552840153 2.37824709595 130 108 131
0.804837667784 0.35938053015 2.29718442143 105 81 97
-1.02769216995 0.427193373948 2.62555456878 108 89 108
0.802865553423 0.352641572347 2.30303402769 144 130 147
0.884381293998 -0.477378717928 2.33941052407 104 76 91
-0.219785879199 0.382600877067 1.76167025536 143 94 113
-0.339423316038 -0.573584277688 2.37212281299 125 72 88
0.474875756398 -0.631857747926 2.4153149169 114 101 119
-0.487124215845 -0.672622407612 2.58925683236 126 107 127
0.320670904911 -0.697769462605 2.44317736569 144 115 133
-1.27286625053 0.130466163025 2.68111081727 129 123 149
1.03521925208 -0.476068233501 2.30845462252 144 125 145
0.756682879881 -0.547139961003 2.36560452215 98 90 114
-0.907502326275 -0.386079730847 2.65412444455 115 94 113
-1.10209656491 -0.636727379498 2.70339265316 53 45 60
0.745291326696 -0.221462758856 2.34817672831 109 85 107
-1.16378003108 0.341738246308 2.65530004869 92 79 105
-0.998926245919 -0.735213454424 2.69352558631 105 98 116
-0.00405754303807 -0.256009270244 2.32950343286 86 55 63
0.729524786819 -0.790417382298 2.38285513695 87 71 100
0.920220825487 -0.128171439382 2.31164966845 147 121 134
0.193756564972 -0.056343020489 2.3173045001 144 101 111
-0.650332136237 -0.663464078834 2.62314020752 145 124 139
0.453000688445 0.027362791049 2.26065725322 79 49 59
0.774093632596 -0.419505417455 2.35301107055 87 71 97
0.986093059986 0.319128481034 2.27559998563 133 114 133
-0.0651774132059 -0.364173287566 2.35791808917 113 65 77
-0.234082280655 0.405529106918 1.76347826565 143 96 116
-0.146663978989 0.201472122183 2.26514799954 84 59 78
-0.952718000785 -0.406364031685 2.65476609149 122 103 131
0.745191867848 -0.0177980010777 2.34059717798 131 117 134
0.692184627507 -0.278447066508 2.35691123968 128 109 137
1.0261646176 -0.0583254882432 2.28451195432 127 110 129
0.160304078839 0.0388964177903 2.36244891062 112 80 103
0.82695982291 -0.0523886637954 2.32487802187 137 115 136
0.328720846219 -0.0972325916883 2.32291132663 119 69 80
-0.88154498147 -0.730200361198 2.66805287142 122 93 111
-1.22072286347 0.318204120119 2.66592177229 88 78 105
-1.05562252392 0.378173797043 2.63547223059 124 105 124
0.833205625954 0.376041121295 2.29569679247 107 84 104
0.969571045033 0.471117889287 2.25401747854 126 121 151
0.514897643433 -0.574651273147 2.40766147285 119 82 100
0.0513778158282 0.0271395131454 2.32260231843 147 96 105
1.02391908891 -0.00377314577529 2.28112441787 137 118 137
-0.954478478381 -0.067196360479 2.63693461899 100 82 98
-0.21475438634 -0.458383264262 2.3848304198 68 38 48
-0.0596861108898 0.0281445207034 2.29839624137 110 94 105
0.795683781724 0.0156857199277 2.3301546263 147 123 139
-0.847975431323 -0.687417758542 2.65463238092 115 86 108
-0.712841167226 -0.52347089098 2.62842731538 132 109 125
0.429417482467 -0.628193147125 2.42512695644 143 127 153
0.870094149593 0.156237749617 2.30263604825 101 69 82
-0.846961727088 -0.73255160238 2.65767375116 127 109 133
0.372277662912 0.158433341749 2.21289886738 139 114 136
0.624207156517 -0.774891492946 2.39576794758 140 116 138
-0.46485970926 0.524671097153 1.77417128578 117 78 96
0.0204914976762 0.195102634302 2.23499382313 105 74 92
-0.869456543147 -0.741265709117 2.66731269704 115 88 103
0.456532017576 -0.539109574169 2.42140829065 139 131 155
-0.972622344224 -0.475932440595 2.66340144537 131 108 128
0.379633440318 -0.49027614988 2.42647322195 130 102 117
-1.20696117377 -0.539318359583 2.71612265216 102 84 98
1.06118275715 0.0644652777433 2.27176817432 152 125 140
-0.97805715623 -0.66530279524 2.67651207793 107 80 97
0.001146387441 0.0796990252162 2.32711032016 144 90 106
0.510912504779 -0.328813113491 2.39436367337 118 88 112
0.651069185962 -0.329389616413 2.37122356333 133 109 131
0.100834201454 0.227469560271 2.21827664943 145 94 109
-1.07823418536 -0.618493228485 2.69050489432 121 97 113
0.15994107604 -0.735846315119 2.27411382822 41 32 35
-0.0229865992121 -0.542577171542 2.29790620698 73 39 55
-0.582833101525 -0.711739985253 2.60890339898 124 97 112
-0.119804349808 0.528833009684 1.7116781557 99 102 109
0.408963893342 -0.748717826145 2.43799527585 124 94 118
-0.794139884231 0.253588245298 2.37411034569 83 58 62
0.887618584853 -0.488680025704 2.33559305354 144 123 140
0.838359876863 0.413878999292 2.2957729422 133 118 141
0.0413149551218 -0.0567991811522 2.32839514812 137 86 95
0.193545889919 0.0301524640837 2.3524633234 59 28 36
-1.19821743329 0.37691220908 2.66455493326 117 104 130
-0.641694455012 -0.0325457317102 2.4945835191 75 33 37
-0.449423588924 -0.467246107435 2.45218696087 53 24 29
1.06317882326 -0.056554837348 2.279120416 105 81 105
1.02549030417 -0.687087057465 2.32355322298 134 112 133
-0.179362268435 -0.643007868762 2.3508569033 95 56 74
-1.07294205419 -0.308644684298 2.67384119637 132 108 134
-0.758673373357 -0.537160165711 2.62787104482 117 85 98
-0.462175441251 -0.086841649079 2.46972142918 145 87 102
0.688497870088 -0.54134762027 2.38134205214 142 125 143
0.0235653638981 0.293229430421 1.72387766625 85 49 53
0.665892704817 -0.444282969759 2.38093032441 127 119 142
0.135769141031 0.192231939966 2.21365489149 137 104 121
-0.108673426489 0.347870351354 1.74474344642 139 96 116
0.933533254519 -0.50554257873 2.32903370404 139 120 140
-0.619970775847 -0.531914809001 2.60713838286 140 118 131
0.729729711347 0.0921740633861 2.33252450366 125 100 122
0.128457732316 -0.33819879019 2.36885804578 74 32 42
0.613578660307 -0.303604589398 2.37387090479 128 104 120
-1.17738836726 -0.725711918744 2.7143468481 85 66 86
-0.288949215752 0.265158714967 2.25472113396 157 124 145
-0.120563761363 0.167618755902 2.25905534562 147 100 118
0.889521250482 0.465658415784 2.27555634873 91 95 120
-0.816323116106 -0.00836652002375 2.61260125361 73 53 65
0.761675206357 -0.367469093506 2.36057499441 76 57 76
0.464954946765 -0.868195692785 2.43140528985 133 110 128
-0.464146057709 -0.428332775169 2.46626052821 118 66 78
-1.16463368788 0.473059995789 2.64784902583 85 72 90
0.719408506199 -0.00655270341854 2.34322191551 142 127 146
0.938823508081 0.191520613307 2.28695000572 136 115 130
-1.16994495727 -0.543429732167 2.70431501291 118 105 115
0.49180528255 0.542998965466 2.10003996824 127 91 105
0.177071038332 -0.433254657097 2.37067315308 93 55 68
0.528355676642 -0.589530637363 2.40315701305 125 97 119
-0.147035000423 -0.126244221047 2.32590292199 177 161 128
0.201604831926 0.182434974902 2.20197711006 139 97 109
0.74162258296 -0.55251700752 2.37030563976 105 77 89
-1.06412274971 -0.673513023845 2.69227754233 134 105 123
-0.153300301064 -0.0951272657851 2.36929352391 112 88 52
-0.152283721799 0.502596052673 1.71926824824 108 61 77
0.816811060139 -0.337088714708 2.33862791309 133 105 127
-0.595847831245 -0.66494478514 2.61043707747 141 117 133
-1.2144283781 0.498364824279 2.65800003331 81 74 90
1.0405103819 0.450241387573 2.2512055171 101 88 114
0.688327630347 -0.636295896665 2.38353998468 74 62 76
0.704635144536 -0.156239054012 2.34734425801 133 111 124
-0.719936202558 0.25648692775 2.35964021718 90 64 67
-0.23985872804 0.377068805954 1.76768430224 101 48 64
0.834183749143 -0.564331700482 2.35152924964 127 115 137
0.846850867312 -0.810005093181 2.35653493721 139 128 145
-1.1096008498 -0.637935124729 2.70153995374 124 97 112
-0.585422264168 0.0673773770114 2.48788174887 50 22 34
-0.987750986557 -0.393462582502 2.66451427306 99 78 97
0.970535073516 -0.0719262366927 2.29531227369 102 80 101
-0.736057595617 -0.293967186632 2.61284675986 114 86 100
-0.231274071281 0.365272548642 1.76558360693 150 107 126
1.02655363708 0.236055417774 2.27404331165 139 117 130
-1.20804740465 -0.181085696803 2.69539980339 112 107 130
-1.27806185694 -0.123020207593 2.69899038031 131 116 137
-0.54393815005 -0.253907331669 2.4906965032 70 28 32
0.316020912293 -0.716662836754 2.4544793549 142 114 137
0.716862083487 0.17487848748 2.31788688753 49 92 196
0.605684734776 -0.741239199382 2.40606161139 139 122 140
-1.1912758348 -0.706089923154 2.71349218568 126 103 119
-1.06719254351 0.14636120761 2.65095245729 70 65 87
0.821109345471 0.0671737304755 2.31126742074 138 112 123
-0.101695724947 0.528350669963 1.70816789131 103 105 120
0.639228743649 -0.128719985494 2.35821727738 122 93 113
0.762518669481 0.423683847355 2.30658784607 116 91 112
-0.966493762859 -0.488270747424 2.6641306195 134 110 126
-0.330842779737 0.289661088217 2.25765090467 103 67 79
0.448087048818 -0.441370288806 2.41416528222 115 91 105
0.771632382705 -0.359278146696 2.35469936602 110 100 125
0.322919084164 -0.860014299615 2.45744720714 118 86 99
0.899316795873 0.354237870787 2.28642862252 137 119 141
0.655795633674 -0.681960601213 2.3887114427 128 110 134
0.917000410001 -0.270385963455 2.31647483542 124 109 130
-0.665649544114 -0.268516164183 2.60267617433 128 103 124
-0.751392158874 -0.261860255203 2.60893344307 129 108 127
-0.0852153328169 0.354712770415 1.74204653014 105 78 97
0.973332265921 -0.709958928983 2.33113585369 140 118 139
-0.662342935882 -0.311982761038 2.60549177534 106 80 93
0.48458722224 -0.347090359333 2.39863957875 125 101 125
0.919686376788 -0.246113563195 2.31598132186 112 83 105
0.893074913876 0.416860605501 2.28393727477 145 126 146
-0.995596960716 0.428919840944 2.62356107709 106 88 100
0.178719376301 -0.423118858168 2.36919011623 70 35 42
-0.00195317344589 0.423840054523 1.72203966747 99 61 84
-1.06091896234 -0.578802748179 2.69172158912 117 93 107
0.158560209004 -0.445636953192 2.37488484203 93 53 64
0.886812336196 -0.780035416529 2.34988056913 144 119 140
0.852718288696 0.304466746262 2.30219791939 111 87 109
0.565534673459 -0.324839203659 2.38189414947 122 94 119
1.00563661605 0.494438521745 2.21896187467 127 124 145
-0.698733471955 -0.571102806736 2.62999094127 125 101 115
0.844257047882 -0.0526794344607 2.32090135153 119 97 118
-0.427081170523 -0.42387967094 2.47798746675 70 46 59
0.0689025603226 -0.146268172999 2.32671702927 93 52 70
0.665033227304 0.00431250993585 2.34880801833 121 97 113
-0.662101980774 -0.278774331711 2.60372118602 106 92 118
1.05119818245 -0.0102518473435 2.27583210664 137 115 136
0.785938195561 -0.476255009421 2.35454988518 144 120 133
0.591080151446 -0.705630977512 2.3992967631 140 115 136
0.748351148802 0.0575524923417 2.33598376833 152 131 150
-0.0528700304289 -0.427456256795 3.44849873191 115 72 89
-0.593319091184 -0.0679756309918 2.48958007439 104 62 74
-0.961260518411 -0.601748777052 2.66470891916 121 95 108
-0.927583877117 -0.566719773614 2.66040462871 104 73 89
0.531275527956 -0.319937980349 2.39118960687 127 104 124
-0.443845527986 -0.702045793219 2.39224779157 94 53 59
-0.675862295907 -0.281229238926 2.60610408628 111 83 108
0.670541101226 -0.155141143655 2.35845213724 143 125 141
-1.15476818286 -0.0968613814264 2.67268172373 122 104 126
0.688864124991 -0.780296487525 2.38859592432 119 89 115
0.820105756234 -0.461683774797 2.34986292389 136 109 126
0.246944929293 -0.167067624113 2.36346879337 136 85 102
-0.0865129761545 -0.489975484223 2.36800605306 127 75 87
0.523557283342 -0.349682124454 2.39683294543 143 118 140
-0.24408157079 -0.22417304005 2.39309181024 119 66 72
0.931224728453 -0.635589496221 2.34190751052 131 126 149
-0.385085766902 0.516042837468 1.76315218242 124 86 101
-0.244626480237 0.354890607024 1.76849080437 103 49 63
-0.888824625276 0.0169456379608 2.62365718372 78 57 76
1.00423538811 -0.777974239102 2.32884129679 143 124 144
-0.646960647619 -0.463443607199 2.60751721235 135 104 120
-0.146441493614 0.201394358888 2.26558380383 85 60 81
-0.807241278794 0.477254763323 2.35481863287 133 89 112
-0.713367582018 -0.287410537491 2.60524553103 106 74 87
0.653297307492 -0.646294643321 2.39780324783 105 96 115
0.592299192848 0.0367268165422 2.35976295989 124 98 109
-0.733740494694 -0.441539039745 2.6243260749 118 101 120
0.62758590203 -0.248628170687 2.36802406458 131 112 132
-0.929609391914 0.06142892852 2.63168901853 106 79 98
-1.18438825995 -0.309291679819 2.69439973391 132 114 136
-0.548872713949 -0.693922109232 2.60304791599 139 110 130
0.448526503027 -0.710405413525 2.42623247904 124 96 119
0.708623506648 -0.56017615114 2.37107471062 141 119 140
-1.2291536605 -0.553744151125 2.71612270138 125 108 124
0.832000961448 -0.376937464586 2.33758189698 137 114 134
0.694856309398 0.0134323049178 2.35076062464 150 131 153
-1.10228059104 -0.138742039641 2.67032104503 123 105 127
0.482199349955 0.206814174228 2.15124136624 146 97 116
0.68480309927 -0.454139211069 2.37334931444 129 100 118
-0.156697158849 0.036749696108 2.31372066397 47 32 35
0.824889854292 -0.303952264821 2.33775502364 106 78 92
0.600603597758 -0.0345872438045 2.36214269854 108 84 108
1.01673758594 0.0914550562768 2.28025536443 138 111 128
0.97648096049 0.0795333949261 2.28737449651 109 82 97
-1.06974977601 -0.0749289810518 2.65870922032 122 104 126
0.942694217273 0.369509907367 2.27688790148 109 83 96
0.839859204425 -0.293662380765 2.33344295839 117 84 103
-1.04796839746 0.425944149784 2.62850511574 71 62 81
0.630452634583 -0.387927572091 2.37986712345 133 117 130
0.793518003019 -0.619341971398 2.36129032111 110 87 115
1.05324264544 -0.0400895145807 2.28094082589 106 80 105
0.815365907184 -0.206892980611 2.3382181144 134 114 126
-1.09531380889 -0.319177601795 2.67832541434 129 99 123
-0.543997256011 -0.263864206074 2.48786805324 103 60 70
-0.986656747582 -0.465845141106 2.66401738612 122 103 125
-0.437295043654 -0.425190822611 2.47644762147 55 28 35
0.939242324868 -0.573935927249 2.32918873818 118 90 112
0.996162507162 0.430427267299 2.27612633408 120 93 110
0.899284087014 0.143968081872 2.29996076152 142 121 140
-1.1027331183 -0.741024898574 2.71052605132 74 53 58
0.828319114314 -0.0645552255486 2.32590669216 138 120 136
-0.534164350907 -0.74044498409 2.60846588332 123 110 130
1.03602111865 -0.491699756134 2.30888098728 140 121 140
0.605318552178 -0.830489030959 2.40881279091 147 117 129
0.127320957835 -0.646622746212 2.33599859268 79 48 63
0.967779710118 -0.836608103148 2.33995708604 125 111 137
0.569699530727 -0.432879975076 2.39066194932 132 104 126
0.000501993924008 -0.256311645691 2.32811274229 92 57 64
0.714988944901 -0.794263102659 2.38370321659 112 92 119
0.791162897449 0.0664405384588 2.31659295543 102 77 96
0.864008611981 -0.64105661458 2.34925263924 135 121 138
0.840839580177 -0.493583349322 2.35063955159 128 103 122
0.957704343802 -0.538184396835 2.32538312973 112 101 118
-0.311204829929 -0.497702053928 2.36691490115 133 77 90
0.186810667686 -0.293460025438 2.36992703543 86 39 49
-1.19744772056 0.0292584674115 2.67433246998 115 99 126
-1.15356851659 -0.651753680194 2.70680901934 123 99 121
0.639553076453 -0.398095480813 2.37553956341 122 99 119
-0.944288200985 -0.381271377796 2.65573223787 127 105 128
1.06953628015 0.572323291295 2.20338986967 90 84 98
-0.642595040929 -0.594136750049 2.61541674622 96 64 75
0.940793270629 0.151567888172 2.28680130239 138 119 138
0.885026279521 -0.536572044247 2.34135709552 134 120 145
0.198578366119 -0.438949134712 2.34819095857 62 33 37
0.633188050469 0.0870608034308 2.35277866859 111 83 105
-0.335100922365 -0.130991804542 2.39928393201 130 74 87
0.950083825064 0.35872049922 2.27648462096 144 120 136
-0.240045382186 0.241865919195 2.27689424644 121 89 113
1.05248593763 -0.389111364777 2.29961280094 136 105 121
0.714826525728 0.393632858201 2.31879788262 121 95 122
0.897076267037 0.255521672048 2.29321073007 116 96 121
-0.877688784593 -0.0984340881766 2.62844103182 99 80 102
0.910069000868 0.255258486189 2.29067055707 115 91 105
-0.613796206966 -0.781864044113 2.61480682182 128 105 123
0.75027413296 0.125346462377 2.32814823181 125 115 142
0.830354051356 0.419870598159 2.29193648054 125 110 133
0.961296371671 -0.771679768662 2.33638257665 137 122 141
0.273524268418 -0.85234246668 2.46532000792 121 96 118
0.587172125948 -0.347075502738 2.38064698112 126 101 123
0.0756687767172 -0.287130732184 2.28912151013 115 78 96
-0.472494114747 -0.640908217121 2.58855163048 102 89 107
-1.09319924743 -0.653734976397 2.69886003079 109 78 94
0.76556383391 -0.290482701862 2.35011055039 136 106 118
-0.340828300708 0.353136623822 1.78552285918 103 59 76
-0.223022211163 0.367927465957 1.76464795216 121 70 85
0.790720347607 -0.174397751176 2.33528292679 144 125 145
0.672539886362 -0.468918898284 2.37554371535 146 122 138
-1.07214808349 -0.736735329902 2.69917337355 119 95 111
0.916222842851 -0.755883091261 2.34208163826 133 115 129
1.0359272047 -0.383172963666 2.31285328716 149 118 136
0.970866391696 0.29540080971 2.27973581511 121 93 105
0.442105609518 -0.296604130577 2.4049284081 152 121 139
0.819068068278 0.403176221537 2.29992889854 95 79 106
-0.136019237355 -0.118404565911 2.32593415632 129 108 87
1.03394267174 -0.711496453539 2.31516944952 130 114 140
0.676129332516 -0.656469825567 2.38683700601 135 113 134
0.909002951909 -0.449286908063 2.33386741591 108 90 112
-1.25796226109 0.135223565414 2.68302461418 91 72 92
0.405436659017 -0.874414051081 2.44584488626 145 129 142
0.625391464465 -0.709196351403 2.3917128185 125 100 121
-0.0125577542345 -0.608349654875 2.30671929521 126 72 85
0.622473364784 -0.0843953766558 2.36330996446 93 72 103
-0.393451237889 -0.0280542114208 2.45935062759 114 63 70
0.934687370676 0.303653318444 2.2805339285 138 112 125
0.965184374226 0.428561877459 2.28184629561 132 108 124
0.898290494739 -0.281559387735 2.32702248871 117 104 122
0.98419299624 0.291185880317 2.27728115351 145 121 135
0.751557101984 0.396339434939 2.31731348129 110 91 119
-0.62934398482 -0.757624091513 2.62380038381 139 112 129
0.708312446001 0.389191651087 2.32099443319 131 117 142
1.05904937551 -0.191420958969 2.286750815 118 91 122
-0.942027570347 -0.372762599447 2.65418931535 105 77 91
0.837569313904 0.00109041289605 2.31580179885 137 115 136
-1.14041161889 0.1031540468 2.6644360699 17 25 38
-0.326587327265 -0.255987862801 2.38910001833 88 46 50
0.655692645416 -0.799788996985 2.39496876282 149 131 157
-0.385880437308 0.0496174346657 2.45325283704 49 23 32
-0.891496015585 -0.210326426658 2.63826273453 120 107 124
-0.770401563525 -0.452871246463 2.62778689498 126 105 124
-0.687139706413 -0.248893205119 2.60555156426 133 106 123
0.874780866855 -0.802541139463 2.34973770186 131 103 126
0.50123414313 -0.4175825343 2.40176661119 138 120 142
0.966620424741 -0.715513938934 2.33038729843 130 108 131
-0.968238443672 -0.462654498735 2.65947898519 121 96 115
0.624421536188 -0.362862759931 2.39017909231 109 105 128
0.408955886157 -0.843459147319 2.44465269052 138 116 137
-0.462306604399 -0.173493636674 2.4795264453 122 69 79
-0.758289710685 -0.324320945615 2.61853684897 134 106 121
0.0421227716057 0.0245242183493 2.32318517934 59 23 35
0.420816474486 -0.734629947075 2.43400040145 101 68 87
0.265282941096 -0.0192341231055 2.34174162405 146 90 103
0.459361937645 -0.331844407882 2.40195817182 127 100 119
-0.720911960664 0.0745515065808 2.45942734557 123 79 92
0.686252796052 0.1208620972 2.34807583535 63 50 60
0.812089125114 -0.824919219095 2.37255056151 99 79 104
-0.742313146395 0.105881859572 2.45903581273 148 93 112
0.803966081496 -0.67745063347 2.364983949 102 77 106
0.914726971834 -0.0342466248875 2.3084133996 114 90 114
1.03372387921 -0.310740419567 2.29980877373 134 109 130
-0.54361797677 -0.171979148938 2.49300348148 120 60 68
0.400985196181 -0.707581417225 2.43385734988 127 96 112
-0.116595481637 0.408463203296 1.74415346372 105 57 71
-0.74962557387 -0.644101137776 2.63663345368 139 111 123
-1.0630444759 -0.606460639863 2.69329122407 116 86 98
0.897724838232 0.0230081290514 2.30732984858 122 94 119
0.399026630838 -0.749655930469 2.43781279233 143 118 140
0.0530080089925 -0.256549419327 2.32064784498 92 59 70
0.304047068782 0.0432386784833 2.32987248426 131 74 83
-0.674509873476 -0.0246622402578 2.49851346516 106 61 68
0.614086593886 -0.264256128776 2.37450741608 110 86 108
0.902786523509 -0.344873844243 2.32665590309 95 71 95
0.987638235603 -0.582421893284 2.32190031869 115 91 115
-0.980322261189 0.493419726557 2.6120746876 96 87 104
-1.14314146797 -0.635403455424 2.69910215111 99 72 89
-0.707194247143 0.240880334668 2.3606648489 101 66 72
0.826207034315 -0.50396695489 2.34698672134 148 126 139
0.0380285756849 -0.186674604203 2.33504188884 99 68 86
0.592406870219 -0.495337711767 2.38699211719 138 117 136
0.450909896319 -0.638387779635 2.42367591551 143 116 131
-0.467501180315 -0.0518356181646 2.44204692428 136 82 98
0.646735148765 -0.115809371719 2.35621055955 118 91 110
0.666924981708 -0.569058565495 2.38139739582 115 87 110
-0.355933393073 0.362149924172 1.78742055928 138 90 112
0.91761145137 -0.135205396953 2.31112515643 125 96 114
-0.650175419002 -0.50386332955 2.61126765484 95 71 93
0.918078286507 0.144420643124 2.29405523969 118 90 104
0.904322252419 -0.573265769359 2.33565785392 124 98 123
0.848087206446 -0.29604657956 2.33544039885 101 70 85
-0.892327388755 -0.612905947132 2.65928622509 128 111 130
-0.0381630442496 -0.56343592393 2.3023163911 43 22 29
0.387312563198 0.223259122129 2.16754418733 116 72 95
0.0227131942407 -0.534606388554 2.29167052331 128 81 97
-1.23400479082 -0.00657767724239 2.68075263719 108 87 102
-0.604836682205 0.224130851735 2.34313423441 66 39 46
1.06684131572 -0.212698756958 2.28818893155 106 81 100
-0.48070343087 -0.0279214582899 2.44533413176 71 30 34
1.03297284621 0.182514737943 2.28118091874 127 99 113
-1.09187762695 0.388662265228 2.63879860036 83 73 97
-0.821464772208 -0.026865387525 2.61102506936 110 93 109
0.466929107855 -0.416801786386 2.40989495805 102 84 108
0.121588195785 -0.0335276018625 2.3681645642 134 76 88
0.665141012439 -0.293637903035 2.36839410915 113 88 110
-0.980347104063 0.0849453330381 2.63955384017 54 46 59
