ply
format ascii 1.0
element vertex 851
property float x
property float y
property float z
property uchar red
property uchar green
property uchar blue
end_header
-0.104862261413 0.441848215131 0.109082807006 84 64 91
-2.81037242197 0.213336639855 3.16437978607 121 97 121
0.545200614656 0.340479902636 -0.611578394157 94 74 86
-1.26219052275 -0.918721585371 0.744041900306 116 65 82
-1.65877514993 1.00282221675 1.32297628276 129 77 89
-1.32510950018 0.382139088144 1.08482092979 194 185 156
-2.13286120412 0.357575723751 1.95788276032 66 38 50
0.139089254608 0.459264209581 -0.152836255336 119 105 122
0.55332924073 -0.997961981047 -0.476691700887 93 72 87
0.397231021079 -1.20282232987 -0.266510149791 107 83 105
-0.0634917791694 0.399167164959 0.0464162217131 93 70 88
-1.11353301544 -0.414154674076 0.765199502846 56 27 32
0.442231985845 0.151172974966 -0.481969019503 97 69 83
-1.09050248819 -0.39069624573 0.788118321882 53 24 26
0.053163409637 -0.540790381215 0.0405711104624 87 64 74
0.550635491428 0.966933393551 -0.698105454145 101 75 86
0.472468198609 -0.81570267665 -0.406605112188 103 80 98
-0.367863789881 -1.19033451152 0.563091499712 141 119 132
0.664768163102 -1.10141847545 -0.595284603296 107 79 104
0.46820640798 0.907502010455 -0.60780549838 113 87 100
-0.299613274211 -0.542105593802 0.428649465918 131 108 128
0.144523630063 0.50829913061 -0.176537786334 99 79 90
0.121929545191 0.423246570733 -0.156802231317 129 112 128
-0.70675358928 1.11928985132 -0.0290057828365 132 85 103
0.608703230159 -0.461795049947 -0.594493669298 114 87 102
0.272719217921 -1.01453347956 -0.195338770161 128 103 122
0.234464986972 1.14927933616 -0.343282962693 120 111 128
-0.782777294062 0.269963312817 0.590811616733 77 37 38
-1.90351460483 1.46342153946 1.14669840223 104 60 75
-1.18714684003 -0.638490483597 0.822811873889 125 80 101
0.545830731661 1.28269064303 -0.735693969866 129 106 122
0.166203181907 0.00646261774142 -0.132719307748 128 90 103
0.599479597584 -0.745915493 -0.560459124299 129 114 133
-0.0793366079635 0.556365879589 0.0490746885135 100 70 72
-0.293660170228 -1.10595956468 0.503050828516 132 118 141
0.0855220158779 0.459916797639 -0.113355119964 102 81 100
-0.237584776763 -0.0263262410574 0.293738622543 111 83 98
-1.81458315007 -1.58387823384 2.23472292267 130 111 131
-0.0829014611724 -1.23944525049 0.263675836599 116 89 104
0.0350096322599 0.330909304944 -0.057911252793 99 75 89
-1.1229195594 0.211448971853 0.732910022237 77 52 58
-0.543701620559 -1.40837401004 0.799081720523 119 86 107
-1.58857804362 0.306417068455 1.2992206295 100 52 64
-0.357951296734 -1.06740469444 0.563137043881 128 109 131
0.412979530801 -0.816913031662 -0.338294684291 122 97 119
0.666169835108 0.930204350546 -0.824197476945 102 79 87
-1.89694999025 1.32301759553 1.26819093529 142 98 115
0.355126607321 1.25709492791 -0.501415472815 119 99 108
0.1991002958 -0.525878201054 -0.101363469606 123 111 135
0.125057906173 0.537889611481 -0.169611484483 102 82 94
-0.619132182198 -1.43546808165 0.890830709738 86 62 76
0.65529912328 0.310696806864 -0.745563782489 99 72 91
0.0188008501099 0.393146267399 -0.0425351451984 121 99 120
0.292721476668 0.815969071402 -0.400815681114 122 96 107
-1.60722658133 -1.58282939965 2.01531407268 116 103 121
0.0392643181999 1.28993027179 -0.16993423879 94 64 76
0.670076017045 0.819641456642 -0.813683228971 107 79 94
-2.17836671808 0.689750181805 1.97005866316 71 29 31
-1.44707804979 -1.8332179203 1.84589350226 125 102 122
0.167114539241 0.70281828978 -0.236375472731 131 104 119
0.212251810948 0.0730798110914 -0.206653724252 92 75 94
-0.16558624969 -1.5353404169 0.386693985802 102 79 97
-0.8466216964 -1.31522500925 1.14234120799 133 106 121
-0.0538139275724 -0.539402564886 0.160555149837 129 97 108
0.287826866124 -0.77623136902 -0.205351287906 83 68 91
0.0367579943824 1.42480287353 -0.167024685659 95 72 88
0.189063675274 -0.367327476262 -0.132503580809 117 100 119
-0.0600318950004 1.11298802414 -0.0355111636308 87 68 88
-0.548677149472 -1.71379105496 0.839659868038 96 81 104
0.4138060205 -0.0507047855882 -0.429056011843 99 76 92
0.0307034404926 -1.21299321438 0.141027107513 112 87 108
-0.0618893806902 -1.48691930386 0.276050154576 122 108 134
-0.430353341134 -1.33034208467 0.647288947917 129 104 126
-0.318521324931 -0.232372516439 0.421174840884 126 111 132
0.275969917258 0.481402819023 -0.33110969073 94 74 86
0.0349471106914 -0.52126401076 0.0525383038046 109 90 112
0.48863424441 -1.11423401326 -0.404040566858 100 71 89
-0.635663156502 -1.07129084141 0.859252618957 88 64 80
-0.267087419688 -0.3397577191 0.379207771091 109 85 107
-2.89957127756 -1.58573758762 3.44728701252 116 106 133
-0.0238930774354 0.778770076056 -0.0287698024149 124 92 103
-0.623653461878 -0.73505114173 0.813525476748 123 98 117
-0.433521250949 -0.529078332422 0.57902222572 106 74 87
0.081717562429 -0.32300471375 -0.0194038199657 125 95 107
0.65963134835 1.16247958582 -0.857352368834 103 77 88
-1.1353586024 -1.05399308006 0.906461526828 146 91 110
0.109278282883 0.0901329613999 -0.0918730403824 98 76 97
0.267049623094 0.781194287774 -0.348396532726 122 117 139
-0.520473158432 1.05786801698 -0.220732023013 136 104 117
0.404908974208 -0.22500099251 -0.3938929556 136 111 130
-0.772519105245 0.677557655995 0.462360566912 120 69 78
-1.79760629982 1.11482950293 1.39448386639 143 90 106
0.262921552735 -0.00746646893805 -0.261844755779 131 100 115
0.261904679205 0.741821721136 -0.347068475478 129 105 118
-0.610178085832 -0.703204204395 0.79338186727 123 98 117
0.531979715113 -0.890190746382 -0.466308852762 122 98 120
-0.283341354094 -1.54526500738 0.521203697885 112 86 115
-4.76139368849 -2.02667974715 4.34417079783 134 159 216
-0.677805570155 -1.61184029013 0.968516259506 128 103 124
-0.0306632630243 0.370765338647 0.0479438808176 93 66 81
-1.15638436211 -1.87786771016 1.40348696807 87 31 40
-0.0928670360962 0.615645228266 0.0650091486537 124 99 118
-0.064184849129 -0.848604215374 0.203703572638 95 66 71
-0.428159848176 -1.14300430993 0.641966626878 113 81 92
-1.36938998822 0.605849683467 1.07963868116 65 37 16
0.743852720619 0.32779819879 -0.766323149642 97 72 94
1.10902008862 -0.916328301563 -0.472176575352 83 87 116
0.656312938056 0.25638977263 -0.733881660478 117 95 116
0.0348061484937 -0.304399608318 0.0258635953498 90 69 86
-1.85769187685 -1.63200964184 2.28980742966 105 83 106
-1.48869410018 0.676846860704 1.01209577612 77 41 41
0.14738777299 -1.27452477769 0.017875349689 120 103 122
0.192356889849 -1.26022131153 -0.0400870623057 120 107 125
-5.07292380464 -2.68506293087 4.60048534185 129 154 210
0.53464510274 0.356292073089 -0.600905997064 125 108 126
-0.249446234936 -0.483851133736 0.391592458216 111 76 82
-2.12717418824 -2.04190567266 2.62879819754 103 84 103
0.208290765003 1.1125547667 -0.333144244064 108 85 93
0.28735909974 1.17568624477 -0.434399002207 137 119 133
-0.905087050811 -1.3588321942 1.18013413386 138 113 135
-2.40060329467 -0.229832842689 2.71285676301 127 104 130
-1.55632364469 -0.611823978845 1.20614773818 126 73 91
0.53106829991 0.399103523425 -0.611091211595 110 93 111
-0.0436470189841 -0.444522222732 0.125403227379 120 97 117
-0.423621141953 -1.22339141407 0.639958598037 135 111 127
-0.212262157331 -1.36607154714 0.420086772598 135 110 131
0.34678791161 -0.938953461279 -0.263955149723 121 107 130
0.052745887576 1.15335508195 -0.152674618364 69 56 74
0.222860424474 -0.894301343525 -0.116194677287 138 111 130
-0.20947789908 0.978696366568 0.098164402951 119 67 79
0.429436068858 -1.20329404039 -0.302659040886 123 103 128
0.105720675219 0.28069355422 -0.121915956742 102 82 94
0.112342358508 -0.845629128561 0.00555170214925 131 112 132
-4.4469149675 2.34771636195 3.96560440082 126 111 130
-0.732129145784 1.31624591374 -0.0341361224093 138 99 118
-2.08403234898 0.414224223503 1.94363051576 114 62 74
0.543373682996 -1.17319068922 -0.445125859057 105 85 110
0.63914360955 -1.08083967008 -0.566533862173 95 65 89
-2.32969954858 1.38355143195 1.72278247131 124 77 93
0.482680839983 0.452714663809 -0.562495665826 97 80 99
-0.836310051829 -1.1520270768 1.0930679045 146 117 139
-0.639400937572 -1.50444244121 0.914992807396 112 81 99
-0.474503140156 -1.21996729083 0.690148450945 140 118 131
-0.404377805942 0.122554724857 0.486262861943 71 45 58
0.239337999529 -0.558649855631 -0.168204348997 118 93 115
-2.93022779795 -1.85390766301 3.52760567894 113 89 102
0.338925741548 0.00407017874375 -0.337506855065 92 61 76
-0.922645057359 0.0816661204085 0.774070409936 62 32 42
0.38726641915 0.88252476459 -0.49623296215 116 93 103
0.311816428793 0.456460517406 -0.346821705806 103 86 104
0.679624514363 0.00473066840994 -0.725203770601 118 94 116
-0.0613394391659 -0.983221401119 0.226911258267 124 100 122
-2.12334015971 -1.85558914454 2.62114323029 126 102 124
0.500640042438 0.950833638105 -0.643476288611 102 72 80
-1.51139505622 0.816337174383 0.889911039925 152 150 151
0.0312234501446 0.237099374797 -0.0385299919959 83 61 73
-2.16808682843 -1.92355439222 2.67410899782 127 102 123
0.602055460544 -1.10758938563 -0.526046054384 122 100 123
-1.19141404923 1.2072572545 0.52268719895 98 71 86
-1.75258163035 -2.02986914347 2.23744725374 120 101 129
0.604844388367 -0.721005252075 -0.614967786695 121 97 119
0.644489790218 -0.912612555999 -0.595110843265 107 84 104
-0.882609193616 0.865135629511 0.644739444612 125 71 84
-1.89505171149 1.28534085619 1.29402619979 66 38 52
0.314512992308 0.651374133243 -0.38114063711 71 56 77
-2.31132016367 1.16388122386 1.95933298071 124 76 98
0.328522295739 0.733931764777 -0.426915582101 105 80 99
0.746389944529 0.247343534511 -0.765974370954 121 103 129
0.138312244057 -1.34405399766 0.0418870579509 72 49 65
0.292102705691 -1.08901379831 -0.175970598449 94 67 82
-0.113765291811 1.37652856613 -0.0219732418904 70 35 39
-0.135188413347 0.763078004119 0.103110314167 117 90 107
0.633155695407 0.645910694793 -0.756017037481 124 105 124
-2.09477105042 0.660852053661 1.96028092894 67 30 38
0.492560853772 0.644933617518 -0.585219028604 138 128 152
0.00654498420578 1.00699663553 -0.0843913596561 96 73 89
0.0238306759654 -0.87414218329 0.0973898907358 120 101 120
0.626174635999 0.805346868937 -0.760376555149 126 103 113
-0.774046564704 0.175760339856 0.607098694945 118 70 82
-1.84694508182 0.74524947591 1.66229707434 122 69 79
0.515317876243 -0.0561006444057 -0.546140866215 124 100 116
0.377205009395 -0.41820850834 -0.32048743858 127 103 119
0.603121976623 -0.862717839474 -0.551493932208 110 81 101
-0.0479448466087 1.31515301423 -0.0614095039804 71 50 67
0.741092809454 1.50075001731 -0.918810485316 132 117 136
0.621481483052 1.19826084637 -0.812068805588 108 81 96
-0.0424359258714 0.66413478207 -0.000410912225715 105 72 79
0.0605680948576 0.898743524247 -0.145669156289 125 107 121
-1.45383267461 -0.621572156765 1.09924615096 126 76 88
-0.803738968533 -1.2816697831 1.06017512416 136 108 123
0.591636549286 -1.1576571293 -0.508403318102 129 108 127
-1.15846351166 0.760886567468 0.789405171637 79 43 57
-0.53213979221 -0.0352309555025 0.638355735666 104 91 117
-0.0543659890946 -0.618112812674 0.169269400752 117 93 107
-0.848527232434 -1.24342384079 1.13307134998 135 116 136
-1.82113336645 -1.63877867402 2.2499316796 134 112 133
-0.367532285534 -1.47914743355 0.617575692947 117 96 115
0.125162651042 0.424399904732 -0.17403091892 138 122 132
0.251899935258 -0.277803349897 -0.232205379435 107 79 94
0.559142589921 0.845768806801 -0.696161719768 109 81 95
-1.22261405235 -1.67398806177 1.46243107746 19 36 46
-0.0390620304472 -1.12534428732 0.205831955231 118 110 131
-5.04538717998 -1.86002895191 4.41408872541 124 151 206
-0.645694694574 -1.69353780496 0.956560104761 68 56 70
0.663838310579 0.299016109039 -0.752235167211 122 99 119
0.164574387445 -0.580671488516 -0.0818642029997 121 93 116
-2.00622104733 -0.732952544718 1.6717494482 50 29 34
-2.37754367147 1.51155980171 1.26263279886 101 63 78
0.0140331831265 1.03814613145 -0.0777193165917 89 63 76
-2.1006218684 0.442411113173 1.94553967715 115 65 77
0.576181573299 -0.208252220233 -0.605321508902 133 106 123
0.390031309342 -0.380842025679 -0.349858932967 90 76 93
0.538418303633 -0.54038685921 -0.520138779929 128 110 132
-0.0341805295241 1.14705212477 -0.0595133218746 100 70 80
-0.910371589172 0.723433947572 0.707098995793 62 24 35
-0.149991806155 0.972571704121 0.0952349818386 100 76 98
0.63511366866 0.672205209201 -0.761025337516 121 98 116
-0.0437213176272 0.776886301921 -0.00187621290027 90 59 74
-0.636985278777 -1.29810202591 0.898739147945 119 94 113
-1.9765463734 -2.23617663332 2.50127192876 104 75 97
-1.31752318463 0.539426729888 1.02188381524 114 92 69
0.544442064595 1.20054389684 -0.720096956688 109 83 94
0.338746018057 0.0366948285053 -0.333726794996 112 93 113
0.524834137835 0.671820980237 -0.630996673865 128 104 120
0.48893581767 -0.828991114484 -0.414785280252 116 101 122
-1.04504682953 -1.51068013966 1.3748311189 120 92 115
-1.9995174216 -0.355329848335 1.79147644833 112 59 69
-1.48993023149 1.22459221082 0.836319939984 88 48 59
0.309976589604 -1.32272455197 -0.157769492247 107 85 106
-1.16262178878 -0.337525485399 0.753984008086 115 65 77
0.488797639787 -0.0075342694058 -0.513536640505 104 89 108
-2.06940453436 -2.07797145165 2.58957189508 62 48 61
-1.9360831154 -1.54106043769 2.3905244405 122 98 120
-0.0202516272517 0.697440921503 -0.0292352815011 116 90 103
-1.23063575891 1.12960805081 0.659785714396 114 61 71
0.497460738534 0.156118427405 -0.537283724534 125 101 123
-2.43328971349 -1.28008015832 2.88367185498 98 70 85
-2.05926964334 -0.334290022067 1.79102708577 113 56 65
-0.085872807961 -1.01421129969 0.241578145294 127 107 119
-0.50490935036 0.893357298995 0.0900084078415 85 35 38
-1.79910433954 -2.10590991638 2.2680606812 101 76 98
0.0602610078222 0.321794524529 -0.0793628748338 127 106 123
0.145147351491 -0.815337093839 -0.0405946969502 119 98 115
0.0243393652722 -0.850688464892 0.123940834555 70 52 64
0.0472653049902 1.59754472439 -0.215034534556 122 97 118
-0.621048542217 0.690404254747 0.420546367506 88 63 82
0.604475168396 1.06842771618 -0.775185899809 118 94 108
-1.45229111202 0.843952356645 0.880295259396 43 28 23
0.141769152127 -1.2126092404 0.013426268499 114 95 115
-2.03103357134 0.42936955777 1.95055980444 77 35 45
0.343787145076 1.11650386546 -0.418828144709 110 82 94
-3.0266774995 -1.97601101853 3.6285143344 109 82 99
-2.28600706215 0.893905257278 2.11146311561 110 62 74
0.0861673407484 0.257284530751 -0.0742371856013 93 84 105
-2.11636079088 -1.99162343983 2.59960424622 140 117 137
-0.561284489295 1.43236555242 0.513156586163 118 65 75
1.65268528196 1.68608781675 -0.395178970414 153 172 214
0.268982108203 0.848846777179 -0.39934329363 101 77 90
-3.01780683111 1.05668946238 3.27739930457 120 108 132
-1.34224449276 0.550067671498 1.04073252349 130 110 86
-0.326231520928 -1.03795458105 0.511241862364 130 109 126
0.543580891625 0.0349890865754 -0.585695922527 106 79 94
-0.0103225979924 1.25249054968 -0.102197359974 80 61 83
0.523306144315 1.44208975404 -0.728651129886 108 84 98
-0.545186989497 -0.445736089289 0.534438999026 133 79 92
0.104019821308 0.622836185728 -0.138312761408 121 97 113
-2.11362839491 0.603190868246 1.95042660327 107 57 69
0.0717116188319 0.470056900416 -0.0840087625352 123 111 135
-0.758138536299 -1.64986499239 1.0853761218 115 89 118
-0.169258985905 -0.788199135833 0.325949225857 107 82 101
-1.81889607908 1.20321459117 1.3305821639 133 75 90
-0.140474769883 0.840818098604 0.103540195274 119 105 128
-0.222331724831 0.88634575358 0.14304462174 127 102 124
0.319718152962 0.632072807962 -0.407104867272 83 72 86
0.26577364285 -1.28531521257 -0.114415886019 95 75 103
-0.110423950323 -0.654600105567 0.213072994888 96 70 81
0.407020985712 -0.918346078563 -0.320959043441 106 82 104
0.200381272008 -0.16708256429 -0.174783906605 112 94 110
-0.187080997442 0.818347299734 0.151933779753 96 64 75
0.163288093223 -0.887002772025 -0.0580349330365 125 102 122
0.434160991406 -1.13643636698 -0.331748164781 96 71 90
-2.89749058865 0.786886714324 3.14245993912 120 102 124
-0.0706846221468 0.37040927018 0.0639455460674 128 103 124
-0.407984690865 -0.244484567666 0.527189886007 114 92 113
0.64434710887 -0.0555066459415 -0.688588752518 98 68 80
-0.798716679351 -0.771646448848 0.799446074944 78 39 44
0.266575345793 -1.23579941147 -0.123347028582 116 98 120
-2.6240371668 -1.54083518881 3.14735091524 117 105 125
0.0299477250656 -0.133376826749 0.0237863120351 97 77 89
-2.03895046844 0.492110887066 1.95050600767 100 58 72
0.674109431933 0.304181831747 -0.765471210129 97 72 93
0.0954319580444 -0.225025583146 -0.0604160598563 106 79 98
-1.40429474371 -0.101069808412 1.14471323368 104 61 70
0.0993942034242 -0.663322022403 0.000980641758007 88 64 78
0.264867392096 1.17402183671 -0.402262730174 138 114 128
-1.47126141182 0.781140055812 0.883401324408 106 100 104
-2.60653917113 1.03066472637 2.8376554532 96 84 108
0.461333708993 1.08191962693 -0.616000283785 132 108 122
0.537150372584 0.298525671764 -0.624669728053 125 100 122
-0.257460908576 -1.02290932415 0.440314883721 127 103 125
0.475052869369 1.12521875329 -0.619727125023 118 94 110
0.267246449693 0.410292707633 -0.298245438397 109 85 98
0.560963798821 -0.625087495422 -0.522495149748 122 98 124
0.206578505926 -0.144419296547 -0.162665057075 81 58 68
-0.0580846236822 -0.492876002983 0.168983401045 137 116 133
-0.193862642257 0.954487787329 0.11739692229 120 94 121
0.172802427454 0.1877073793 -0.189750621655 98 77 92
0.136561981193 -0.720925482342 -0.0320218087722 120 101 123
-0.917976204557 0.368361851849 0.750800581628 66 30 44
0.113127777548 0.16313662553 -0.107612331077 107 90 109
-0.279777366141 -1.05533804937 0.465166848367 129 107 130
-1.21322427364 -1.64042754216 1.44234987888 55 98 114
0.44564930955 -1.07065238123 -0.345578732487 114 81 98
0.734177984325 0.48433334813 -0.792639964996 99 75 91
0.000887661325913 1.30607162963 -0.103243118219 121 118 139
-0.813431008216 0.479700400797 0.629827256187 95 66 84
-0.688877440217 -1.70252736181 1.00819924137 94 75 95
-1.44067784129 -0.171921286737 1.18993635697 74 44 56
0.281421774581 1.13019194423 -0.394839954742 105 90 109
0.469814631313 -1.26885019694 -0.359465408222 121 102 124
-1.09991996603 -0.618697516478 0.76768614322 96 54 64
-0.231370231636 1.2016789048 -0.0479440894632 79 37 47
-0.435649037411 -0.41905246621 0.577920777435 126 95 111
-2.7924767931 -1.8213404505 3.38100842014 90 71 91
-3.09524348754 -1.60926296726 3.65747525828 89 65 78
0.313416591094 -0.815573224244 -0.214906193501 110 93 111
0.0974034845204 -1.04582519285 0.0406632736815 106 77 95
0.0321179643189 0.456220954489 -0.0506624276456 117 90 109
0.164495396274 1.0134430525 -0.314280889272 21 65 170
-1.48361867661 1.35282244084 0.805851852302 141 99 121
0.344433375953 0.153543878588 -0.428575509777 119 92 107
-1.86500168988 1.48682873837 -0.439825892847 135 88 108
-1.1416262597 0.506411735627 0.784213687918 87 40 50
-0.0108827845761 0.597458831182 -0.0239019323266 135 111 125
0.341676241987 -0.393212154023 -0.294102100182 126 102 115
0.438521623498 -1.26143679528 -0.322631815047 111 86 105
0.299637137234 -1.00073244448 -0.183163788399 104 76 88
-0.727875604634 -1.73434175916 1.06605501668 129 111 133
-2.14303309851 0.693937832774 1.97067677927 105 61 62
-2.01528402135 -2.01824804813 2.52118918177 124 107 125
0.082353930015 -1.26350675103 0.0907783098006 97 80 99
-0.952441869528 -1.30806952308 1.23876045807 136 104 127
0.463033108328 -0.421363429626 -0.418927642747 130 106 132
-0.259967618663 -0.9690756934 0.454090493118 109 86 106
0.392834592069 0.00514771057594 -0.408168022988 117 91 104
0.0561227425391 -1.39085615005 0.127517063002 110 88 111
-0.00939858143691 -1.05602219117 0.157516597608 103 75 97
0.0561795490483 1.50908087988 -0.207408754987 92 74 98
-0.0503974219733 -0.397056323103 0.128157412731 112 80 101
0.547121688016 -0.652679011584 -0.511099613141 103 79 101
-0.30211707436 -0.903093353243 0.489504085602 119 101 123
0.471241614271 -0.765194111717 -0.384277629121 117 104 130
-2.12451546441 -1.8616335487 2.61963064242 126 107 126
0.20438481449 0.463286315067 -0.23415640265 118 94 116
-1.34573789786 0.831554209212 0.854143469406 105 83 72
0.270920130916 0.118084832179 -0.282292088406 81 57 70
0.0294134743833 1.27706493406 -0.153523100433 133 107 120
0.45446301718 1.25271250421 -0.619231209592 75 54 71
-0.432752905666 -1.26036884287 0.661800344838 119 99 110
0.374981222045 -0.807001655712 -0.286328330141 122 101 120
-1.24719230127 -1.12564797582 1.02572831482 80 39 55
-3.61266997796 1.64740545647 3.82379226216 62 70 107
-0.369342280721 0.926668405897 -0.00866254398615 116 65 72
0.470156938749 0.589903304731 -0.571630174795 136 114 127
0.334569084336 1.1715773045 -0.485783219489 130 111 130
-0.779970958463 -0.825985282924 0.707320907812 76 44 47
0.615345604146 -0.614869872822 -0.58882608261 118 104 127
-1.0913631098 -0.41374188868 0.774040664623 115 70 77
-2.94322830589 -0.363832589865 3.32291251338 124 106 128
-0.191237263013 0.0630359950826 0.231463075184 135 106 124
-0.0163484968375 0.984357221282 -0.0480703304423 125 106 125
-0.0561068906022 1.16355343242 -0.0133199323135 81 67 80
-0.55950174493 -1.14074486233 0.783145724523 109 86 104
-0.279010733404 0.0820620424138 0.337101900076 141 111 123
0.0235598131366 1.20533739196 -0.10480149981 128 107 124
-0.0806438018282 -0.619438191619 0.189567100542 114 84 94
0.550882162013 -0.595482016139 -0.522722654246 85 61 83
0.429711814356 -0.436404409794 -0.398247039571 115 91 117
-0.889929303542 -1.3358515187 1.17733931136 138 109 129
0.166149546537 1.202312523 -0.299676532526 114 86 100
0.632405666247 0.840157266807 -0.778334790769 112 83 103
-1.8445284191 -2.05578252618 2.33956810502 88 70 92
0.470044571566 0.288027452691 -0.525709358727 133 119 134
0.177942646321 -0.902695415873 -0.0681888655087 113 85 107
-0.0175027306321 0.903027931551 -0.0620962523945 118 104 121
-0.991115173349 -1.83170808823 1.34555600954 138 116 139
-0.783326623353 -1.48737133012 1.07764561049 106 78 101
-0.721063727567 0.64046744332 0.470571420951 112 59 69
0.263678517006 -1.302203542 -0.115146821693 92 73 92
-2.06121064015 -1.34360843277 2.52200240275 101 71 83
0.62826487118 0.224980225147 -0.697877326325 101 73 95
-1.44748208341 0.78155196141 0.894823658187 210 201 184
0.515722920603 1.02838625217 -0.670771835682 111 80 86
0.275123329607 -0.238861778016 -0.249432611284 110 79 94
0.646574633717 0.822916556785 -0.786223279389 101 75 84
-0.326373732212 -0.0353197329228 0.396059011931 140 119 138
-2.96712926908 -1.30482701184 3.46788291219 112 96 123
-2.26425788096 -1.64874105292 2.71484102263 119 97 120
-0.27102479096 -0.250783690762 0.369582006027 121 102 124
-1.71187254102 1.42997407894 0.955020454181 124 93 108
0.261978869518 0.690853980007 -0.3434407785 135 111 125
0.736608698406 -0.62990856226 -0.651387640658 89 63 76
0.230928236285 -0.730847917754 -0.125781257109 117 99 121
0.294581749849 0.0521880026802 -0.289366194479 120 108 128
-0.149759421123 -1.34721200405 0.358009188184 104 80 96
-1.0943918643 -1.59716604297 1.38094693897 43 31 41
-0.57961015756 0.993192482372 0.0454000784788 155 101 117
-1.70063045316 -0.368147109186 1.30629895021 96 58 71
-0.253925373698 -1.45602426429 0.47880820659 134 111 131
-1.42197501046 -0.806926068396 0.931078678506 79 53 62
-2.47031300357 -1.86722096382 2.998466533 91 69 90
0.593733780111 0.706870957213 -0.717182740042 107 76 92
-0.536515849991 -0.0313998976236 0.629463580339 106 92 117
0.376781913231 -0.0389587902271 -0.389338850517 113 82 97
0.0647557804502 -1.18013045149 0.105144128264 79 61 83
0.212166025277 1.42563161147 -0.375290295099 115 95 106
-1.37423415178 0.824511684294 0.880166546883 102 84 82
0.384450433238 0.573455185231 -0.462185242047 98 75 95
-0.849669790851 -1.81805305372 1.19460210496 122 97 119
0.114762498029 -0.745168252073 -0.026351923967 100 76 90
-0.371146901003 -1.12900815393 0.589746615869 123 98 117
0.532820318576 -0.946408948981 -0.461746182278 105 80 102
0.0985450284272 1.44713148024 -0.226127473493 76 61 80
-2.49102090104 -2.16197840806 3.06618250805 123 105 127
0.578423480767 0.341647189915 -0.66660058107 121 100 117
0.173617301516 0.830624903294 -0.258456362935 134 111 129
-0.276985887634 -0.503735705948 0.409835265057 109 80 98
0.446426669917 -0.937365799637 -0.351228309576 107 88 110
-0.728202076 -1.58864638017 1.03621549689 119 94 113
-0.274810113928 -1.37674704482 0.505976772381 133 114 134
0.537478064836 -1.2199957893 -0.417546473491 75 61 86
0.585537033499 0.126760432569 -0.643637381497 100 73 92
-1.23490548442 1.00108631743 0.325256801591 146 93 109
-0.799032560433 0.350798020123 0.612945935287 72 38 54
-1.56666733824 1.36539781901 0.922996380182 139 100 118
0.468418208715 0.791058468258 -0.589931013557 113 83 91
0.140641805897 -0.171042475691 -0.108040520135 103 82 99
0.680470270513 -0.356532554203 -0.693246796973 111 82 100
-2.65201553304 -1.58590950954 3.1718849043 112 89 107
-0.163739048817 -0.943514113064 0.332663653373 123 99 115
0.107418782299 -0.913681899552 0.022811809876 119 101 125
0.0803490016946 0.837406656145 -0.155788645825 139 117 129
0.379473051739 -0.270083401225 -0.365707899596 110 81 101
-0.0276964258409 0.22030284193 0.0420569887361 112 81 97
-0.756695578698 1.64129047916 -0.0495016545653 74 53 60
0.59665487485 1.25266443265 -0.789860706744 115 82 91
0.196802528751 0.555244289997 -0.251813203107 121 97 111
-0.230804344139 -1.20375542404 0.428541598879 112 84 98
-0.398315288224 1.04662368727 -0.168215378562 75 53 55
0.0525241458108 0.158330232889 -0.0340916406585 122 98 120
1.04487861759 0.123168261742 -0.533267422877 120 129 170
-1.54474021686 1.01066522065 1.17436452028 77 53 66
-1.50989730966 0.891516788157 1.01502172198 95 82 63
-0.161013526525 0.686462450306 0.14895763503 85 62 70
0.580402549486 0.160828295882 -0.651078208509 124 97 114
-0.425568064873 -0.399914519867 0.53990009436 136 109 118
0.111102807368 -1.19904792627 0.0518655822282 94 70 92
-0.224469268801 0.904635216153 0.137732496872 129 94 116
0.145226482909 0.868738834331 -0.230201057323 135 113 126
-0.506025338498 -1.27674055532 0.746266701949 131 114 133
0.203945769392 0.648561993439 -0.22600751 89 67 88
-0.569094645853 -0.386957824705 0.513513288776 111 64 74
-2.32782847639 -1.13081222394 2.80186936511 94 78 91
-0.57867466057 -1.2361877649 0.825071184812 102 83 105
-2.97903091892 1.28177173737 3.21437004931 99 83 109
0.255387910457 -0.792795214924 -0.161359929982 119 99 124
-1.12612801327 -0.238590573893 0.727058110628 129 79 90
0.568780709043 -0.0105868916396 -0.602005114411 119 94 116
-0.21960361836 -0.75396790192 0.368672600582 122 105 121
-2.04178742365 0.866723167632 2.00060142347 91 67 83
0.376900564999 -0.81642082439 -0.299022074778 101 79 100
-2.73326504983 -0.802192304065 3.16920832815 94 72 85
0.388760095773 0.59331867129 -0.498813537927 132 105 122
0.40379152226 0.143684896907 -0.437635488562 104 78 91
-1.60801441347 1.25654536945 0.955589579148 85 49 63
-0.171181501113 -0.568258216508 0.297337145321 130 102 117
0.400947479395 1.11830164266 -0.533698903244 83 62 79
-0.39204372788 -0.230848950187 0.493264149328 124 97 114
0.276545084462 -0.579188467499 -0.220044333183 118 99 118
0.190840381582 0.438427574305 -0.218504707465 125 104 121
0.487237086245 -1.15551917986 -0.37679952748 126 104 125
-0.792269463632 -1.62392077416 1.10507746656 67 50 69
-0.0273025986817 -0.520736541747 0.158567235064 81 71 79
-0.0244448240361 1.07299589288 -0.0762170305745 132 104 119
-2.45066759942 -1.68711959467 2.96420716311 108 81 96
-1.42819433706 0.804780805737 0.875669483554 117 105 117
0.537451415925 0.267925684653 -0.604798675755 112 93 112
0.597530085887 -0.446524109112 -0.590683696559 129 106 122
-0.614949879931 -1.43414466246 0.869522517774 88 61 76
0.0445632513365 -0.982607210343 0.105092543285 92 64 86
0.265209834115 1.14297953226 -0.382354786934 99 74 103
0.235757618854 0.846553742678 -0.331467110114 100 70 80
-1.62439758888 0.282600351936 1.34184146647 52 23 27
0.606298300372 1.53621779524 -0.823512089942 88 70 84
0.481143117506 -1.04009913571 -0.395130715896 127 103 119
-0.988540803341 -1.56610714465 1.30320344114 109 82 99
-1.7280645353 -1.60541054956 2.1319799348 130 113 132
0.27596538738 1.5399980481 -0.446419777795 96 76 103
-2.74797308361 1.18825535103 2.96604325992 98 86 108
-0.393134525588 -1.60735809754 0.689054507768 105 80 99
0.614134646323 0.50277880066 -0.713813036457 113 92 111
-0.364365207642 -1.58592500471 0.621465307638 86 61 82
1.00056411988 -0.448614526659 -0.474282623211 31 18 35
-0.514352806939 -0.0672703586337 0.614456403575 127 98 116
0.283711752538 0.977860844253 -0.394668605917 110 83 92
0.210099680906 1.39518586214 -0.364776261454 138 121 140
-2.85655318313 -1.2870876988 3.34764450796 127 104 120
-0.274707467227 -0.699616768155 0.415960645166 105 79 90
0.0147932676877 -1.45941883811 0.199214357609 118 94 118
0.323324466972 -0.912113867693 -0.231467767836 124 109 130
0.190816017302 -1.33595287403 -0.024409384327 116 105 135
0.142923790689 -1.36458841636 0.0379407112665 125 101 117
-0.18774793081 0.816467494409 0.150662227498 96 64 75
-0.307526599618 0.0509355986593 0.375422054655 102 78 92
0.565729080221 0.87944278611 -0.712365446953 112 76 86
-2.28913568119 -1.61797815245 2.76093717899 97 74 92
-0.381886447488 -0.449732814077 0.511223324991 126 109 128
-0.862196419665 -1.73326234755 1.18711521998 129 101 123
0.17804584397 0.961299646816 -0.259240494181 123 113 137
0.542331863958 1.31232976557 -0.734468425131 126 103 111
-0.460517047841 -0.32357378705 0.580042176051 118 91 100
-0.388226943701 -1.19799189962 0.602130072909 115 86 104
0.4809136519 -0.46503450633 -0.460871858944 137 113 127
0.218774862434 -0.328530261337 -0.170198848246 125 108 124
-0.555852268316 -1.50995664111 0.822483529705 128 109 131
0.517747573055 -0.139800844419 -0.568871273385 118 91 110
0.549082682431 0.821534364181 -0.686919277434 120 98 111
0.486399843039 1.20877074931 -0.655513485175 109 83 96
0.166608369814 -0.592342203198 -0.0902471838433 121 100 119
-1.14786830122 -0.276412764055 0.751623678013 82 37 44
0.511702825271 0.516300927866 -0.611879244676 111 87 111
0.0454400828048 -1.27404848848 0.119957602508 128 109 128
0.668729319259 -0.790402935143 -0.638264572563 103 79 111
-2.66417584165 -1.67889535507 3.18568056214 128 100 114
-2.78258228557 0.822162038634 3.0397878516 115 100 121
-0.314852786382 -0.942413817176 0.4893058547 120 101 120
-0.00915826281121 0.513675335685 -0.00846902834032 91 75 102
-0.0931014281994 1.48576765558 -0.036750983966 83 57 82
-0.518973662039 -1.09791641202 0.747643489715 129 114 133
0.676371917606 0.856596175279 -0.820825197938 100 74 87
0.158855636696 -0.580330267861 -0.0749589168374 121 94 113
0.602224990999 0.998822151752 -0.764279814725 127 105 118
0.461158039886 0.733882543166 -0.567608469768 112 90 111
-0.153608754063 -0.312027107959 0.241201520573 93 66 81
0.483563548083 0.935446258518 -0.630746132829 110 77 88
-1.48421491399 0.767598904571 0.895508390351 195 191 179
0.533873465045 -1.02531530369 -0.448946855246 108 84 98
0.0095893993701 0.951510067839 -0.0644890931389 85 65 77
-1.17744299083 1.22483280639 0.494277449793 108 76 100
-4.64149618049 -2.8859750446 4.75713875289 152 168 219
0.363743711482 0.0583327750881 -0.392978104459 122 108 125
0.114204239819 -1.17704573518 0.0407260812538 120 99 118
0.565136634107 -1.0221665479 -0.485748694086 112 85 104
-2.21150607678 -2.04607955045 2.7272003052 130 105 127
0.210731397479 -0.363313905923 -0.152025151611 114 87 106
0.666008248668 0.330278303031 -0.726733269457 106 79 96
-1.41915673374 -1.61110993812 1.79129327911 97 74 100
0.413287417449 -0.683840619271 -0.35871147284 123 100 120
-0.988419904512 1.21285976541 0.265408048497 103 71 84
0.623571995702 0.0320164814794 -0.673642447737 109 81 103
-0.00769769883971 -0.804374469886 0.13870606944 108 93 116
0.242528676566 0.629471962418 -0.301912070676 103 82 99
-0.385358373215 -0.711141191509 0.537594502511 112 81 96
-1.56352747078 0.99710807563 1.18860826633 67 31 41
-2.91438961326 -0.497960040775 3.32347156889 128 104 128
0.451307326106 0.583582010724 -0.544388387364 124 103 122
0.525556030132 -1.03933113355 -0.432744159954 119 94 115
-1.44185098694 0.774318249717 0.890439207703 214 212 197
-2.79235434451 0.269730927158 3.11950496641 111 89 112
-0.603085094623 1.00522965187 0.0522664329031 128 72 85
0.373934047137 1.50478631881 -0.566508279311 86 70 96
-0.0159506878685 0.919653075502 -0.0602388656286 117 100 119
-2.07656949642 -1.69105789879 2.543256265 128 109 131
0.277868564359 0.715655867589 -0.354825758895 85 63 84
0.608802381586 1.39709727034 -0.822757968365 120 99 114
0.532636909692 -1.08099507692 -0.436254919539 100 68 89
0.3404928435 1.55059587203 -0.522252908688 80 63 82
-0.918631334165 -0.7217789248 0.732178154182 72 34 47
0.117581405299 -0.726416456522 -0.0138895885831 90 76 93
-1.21565478182 0.486456170433 0.886010211156 127 76 83
0.714949146199 0.737412654316 -0.824565201021 133 112 129
0.0232800074917 0.438049002052 -0.0532230676109 105 78 95
-1.45857024206 0.732235892327 0.902914881813 196 189 173
0.663653374428 -1.00973735417 -0.600153338123 88 65 85
-0.0462718838151 1.24849710028 -0.0600451922438 107 92 113
-0.344444798875 -1.09723114498 0.55641679943 125 105 130
-0.136753771491 0.739241978582 0.0991006194251 115 94 113
-0.0432479232368 -0.015161886439 0.0744297519822 128 105 121
-0.33757462334 -0.888439085577 0.491580611761 130 113 131
0.315593426601 -0.557013600803 -0.268339002601 112 94 106
0.370172966355 0.686973626276 -0.466820631416 106 82 98
-1.25535608806 -1.71283303632 1.50607960021 137 111 120
0.64642743798 1.00460444422 -0.821837816366 109 78 93
1.00109000927 -0.441697465766 -0.478922585585 36 23 30
-2.33576518662 1.075466268 2.04995228758 85 44 52
-2.31289775034 1.4097973598 1.7159947825 117 75 87
-2.90623204964 1.0274470186 3.13052773426 115 113 134
0.597314411838 0.446851795741 -0.707514249256 97 78 98
0.570706736621 0.328689589506 -0.639194528671 102 74 97
0.593275590221 1.08212814045 -0.769024162967 115 91 104
-1.94279756437 -2.20491360943 2.44569445537 124 106 130
0.580804214596 1.03287756032 -0.73681007021 110 83 92
-1.3427890082 -1.550592967 1.7061720047 124 96 118
0.544476241164 1.49473729415 -0.759157860767 99 79 90
0.0944976817841 -0.730947019143 0.0361440249517 70 57 67
0.467048442692 0.853225263838 -0.602457910932 125 101 115
-3.15002857753 1.6780582735 3.33948737237 82 75 106
-0.266719811016 0.190043716463 0.293901914269 148 119 139
0.349754936475 1.39352118587 -0.52187864055 88 71 89
-0.00657729279883 -0.635742399367 0.117594196695 115 84 102
0.390081396395 -0.456390361616 -0.355901650008 125 101 123
-2.36067359983 1.10576798056 2.12262618547 83 45 56
-0.052623884469 0.744596140727 0.00133644407559 104 75 80
0.405148223614 0.877945124711 -0.510276349603 94 67 74
0.128500039066 0.0821212163291 -0.119325417938 121 102 121
-0.911576867314 0.103244861946 0.783792377743 90 65 84
-1.06738810119 -1.56360923359 1.38610296672 118 94 108
-0.896107377391 1.19013212139 0.182233216561 116 77 96
-0.351456872957 0.12768441573 0.422907714734 143 118 139
1.52992981652 1.80455877542 -0.570799165919 118 114 137
0.183897818931 -1.04617653158 -0.0561142628689 106 79 94
0.577791356906 1.31111118503 -0.776604366457 106 78 90
0.0534226471708 -0.559916879363 0.0530715454467 124 99 118
-1.88452455829 -1.94151589037 2.35329464561 101 73 88
0.440875868906 1.22283647697 -0.611782141812 130 110 122
-0.024980734776 0.42570362384 0.000767207718694 127 110 128
-0.382518460122 -1.21098528 0.591691451574 142 119 139
-0.319050293991 -1.01805617314 0.506047684167 130 112 128
-0.311702146908 -0.253733315144 0.421208755066 103 72 88
-2.2897651745 1.33489229227 1.69368032394 76 56 65
-0.402613072037 -1.10677005555 0.612267336415 93 73 100
-0.770560762035 1.2672620949 0.0397695382854 83 59 72
-2.03966970268 0.864024837748 1.9889063991 90 66 82
-0.346005459537 -0.289786725612 0.457526759994 125 108 127
-0.0354028232729 0.856293847454 -0.0254362788207 117 98 117
-1.58714401608 -1.90021171151 2.00392141738 86 68 82
-0.160091316442 0.686687875785 0.154567254583 87 64 72
0.474478954367 -0.964470755248 -0.402885051441 121 108 136
0.0283192032793 -1.13180110221 0.134832011592 93 75 91
-0.549503867263 -1.11234288999 0.777757418794 104 76 91
1.37511282869 1.91675838725 -0.865529721209 124 127 158
-1.48752329026 0.739590503923 0.91524597693 99 89 88
0.325383040318 0.799563951478 -0.44844732615 102 74 86
0.688297171715 1.10901632326 -0.883180953752 120 84 96
0.0845506134845 -1.06927411639 0.0626879123696 122 98 120
-0.163310008687 -0.494546175999 0.278565047698 99 66 75
0.519358659981 1.54278489154 -0.73153417922 121 96 117
0.0285024926598 0.94875304236 -0.111827274228 88 61 70
-0.0975718028422 0.0567901295749 0.141142507746 100 69 85
-2.31285086452 1.22750231878 1.91261451793 147 98 117
-0.0894564339799 -0.530672949005 0.19979098939 110 74 86
0.271988835276 -0.734285092893 -0.190300646177 67 59 70
-0.846444719533 -1.26306461663 1.10604710343 104 76 90
-2.42418287466 -1.45500960367 2.89377196847 130 103 120
0.100814135256 0.647116881361 -0.149595243497 69 55 72
0.144469794621 0.666902675172 -0.194912768445 125 108 127
-0.214407506224 -0.560582851483 0.336212427006 109 77 88
-2.21237553647 -2.39618235661 2.79207893512 85 62 82
-1.56910274867 -0.162525918719 1.34076228331 96 65 83
-3.06964694032 1.21485592146 3.29474297794 115 105 130
0.124997159618 -1.01314739611 0.00371886943952 99 71 94
-1.05741798531 0.727075005487 0.674474870195 130 77 93
-1.47471367281 -1.92181666494 1.90070126595 55 42 59
0.403448318452 1.27526348331 -0.558806678855 71 58 75
-1.40982086392 0.752906174035 0.906491953009 134 123 119
-1.70449871402 -1.24219814251 1.44929379563 55 32 40
-2.96386150073 1.30255900644 3.17985590113 128 116 140
-0.349996329029 -0.488362949591 0.4895878715 127 102 121
0.279222491199 0.0324372552535 -0.290893111804 86 61 67
-1.47292350957 -1.70078762483 1.87162674753 110 82 97
-0.244302433873 -0.333588816512 0.340376045839 107 76 92
-1.69835553662 -0.389534011619 1.30185525265 64 32 43
-1.41606917097 0.424516627264 1.12112076933 118 95 64
-1.31859249392 0.496523425893 0.993640654507 88 60 48
0.156533149698 0.210845832641 -0.165481561675 87 62 83
-1.01158082152 -1.48031836349 1.30953535376 129 101 123
0.554420542821 -0.665170363221 -0.520594316994 123 108 127
-5.02341822015 -2.26139747591 4.56639490179 179 195 247
-1.62965396195 0.225042236941 1.33237827068 37 17 18
0.326472676291 0.433413282705 -0.363204345739 111 84 93
0.116927464062 1.31125893411 -0.235357972365 81 66 89
0.0656915812529 -0.531199291728 0.0279497040363 120 101 123
0.115991961412 -1.21127289542 0.0386787852013 110 93 112
0.679182484119 -0.12706645345 -0.706822045453 109 76 97
0.326579070968 -0.014836236083 -0.328710037092 102 71 79
0.119258432829 1.37946262448 -0.241642480671 96 80 106
-0.0242804859342 -0.0949690804571 0.0699871151356 115 101 124
0.324635052648 -0.868746804762 -0.239122477529 107 83 105
-0.0435036287616 -0.468922109076 0.1301599425 125 108 127
-0.255040911684 -1.07307787922 0.446963134694 130 111 133
-0.0444460612847 0.608734920185 0.00104745135715 108 84 100
0.0565557476372 -0.996993122938 0.076809042211 125 100 119
-0.49157566787 -1.4736428032 0.755299591828 76 58 72
0.258346594102 1.00394799281 -0.35277695582 131 109 122
0.131279532984 1.45383676409 -0.253969245581 84 68 94
-0.551977446004 0.904438996659 0.292171031565 92 44 56
-2.87842822203 -0.543217333433 3.32224549512 89 69 81
0.224501459608 0.981539792983 -0.328557414149 97 73 89
0.594590500137 0.367587093897 -0.6762698316 123 95 118
-1.75637861357 -1.59535732215 2.17994183711 111 88 106
-2.92532908077 -2.32826495411 3.56624858058 118 95 111
-0.884922938149 -1.26670923153 1.15559326702 107 78 100
0.074329728437 -0.103774350724 -0.0456977202943 105 90 113
-0.14143096296 -0.937554527905 0.309910567766 106 79 88
0.403937040674 -0.173469973511 -0.400947071938 98 74 88
0.096653610425 0.994625755671 -0.15824302831 126 105 122
-0.891207310915 0.905034748634 0.663529441749 88 57 73
0.671330058512 -0.243024116191 -0.698407842994 134 111 127
0.054275636765 1.28453122701 -0.185035563315 131 108 116
-1.72047133449 -1.51873572657 2.12215793335 80 66 81
-2.97571659239 -2.3017987478 3.61659774397 114 83 99
-1.24433574122 0.859094980355 0.829811295354 156 149 130
-2.1638553005 0.729057400518 1.97656580504 102 55 65
-1.13559531584 0.840389526514 0.748868562415 94 43 50
-0.465517890306 -1.36851899956 0.70328647108 132 107 129
0.17736559003 -1.00279831062 -0.0632544954904 110 77 94
-0.214081700082 0.951981817534 0.112629485378 122 77 100
-0.465998876074 -0.940136994525 0.667530810573 142 113 131
-2.65930813514 -2.19332387569 3.25213603635 127 106 125
-5.06271919052 -1.85376211311 4.51137015218 114 138 198
-0.476507695727 -0.965261526516 0.673312287843 121 87 104
-0.615730805295 -1.08904985324 0.849839439955 111 89 102
0.648963837257 1.06160504603 -0.832138248569 100 69 84
0.448693001806 1.36727154149 -0.62016393589 122 96 109
0.59249337025 0.149408855154 -0.657491502016 127 109 125
0.434994341778 -0.510801781365 -0.395593053602 126 101 122
0.0489574451259 1.03554906793 -0.137175750591 75 54 63
0.0947001727323 0.89013553491 -0.179952023178 123 106 124
0.520598512824 -0.806957803642 -0.462773535618 97 71 98
-1.75970893975 1.39314341634 0.397705164098 80 52 64
-1.76593521077 -1.76833417598 2.21056398562 128 100 114
-1.91606810804 0.602021952161 1.8685998134 86 62 78
0.253171561289 0.406667538527 -0.289884400523 132 114 130
-0.585519377302 -0.826145156008 0.774884588164 110 81 101
0.51890141668 0.75335541467 -0.617028579744 124 111 128
0.0338676389403 -0.251459234182 0.0262231423544 127 112 131
-1.80300035876 -1.95599861221 2.2643360589 126 102 124
0.338301071943 -0.287682971276 -0.317395715074 123 100 116
0.225968382495 0.579167479982 -0.280881389624 123 99 113
0.723589317171 1.28725747648 -0.890885247297 115 92 110
-0.9826690882 -0.809485479047 0.620473500823 70 38 43
-0.204236525815 -1.01509604355 0.374906466759 109 76 95
-2.56862508617 -0.664898828182 2.98198025583 127 104 120
0.661164241616 -0.29217195014 -0.686720701065 118 85 104
-2.18568282105 0.877688435475 2.08493979984 62 37 43
-1.56400925518 0.220220768128 1.29909071877 40 20 19
-0.0313425777625 1.57495516088 -0.116913316502 99 85 108
-1.38141515774 0.756976357949 1.00774009313 126 102 92
-1.50900717306 0.706244992565 1.00409972749 173 165 178
0.211668790482 1.6056206588 -0.411001041923 124 100 114
-0.880654121956 -1.80470043675 1.22616727998 93 74 93
-1.53709602758 -1.02721442085 1.16050924845 57 26 31
0.665036465024 0.28459080401 -0.756528060124 96 71 93
-0.0175690289234 0.969563761474 -0.0516584933402 113 87 100
-0.162224103729 -0.536121068433 0.274600126191 129 99 109
-0.274450170409 -0.220254520235 0.358710643561 127 112 131
-0.059281036073 -1.3216504034 0.262025265634 129 117 141
-0.959283185803 -1.86833243436 1.32912610571 132 107 129
0.0657842230917 0.804638232452 -0.150888775058 116 100 129
-2.67782487493 -0.22599609324 3.0347019117 81 67 80
-0.284155752136 -0.935838258965 0.473659080517 124 99 118
-1.89630167686 0.372036866412 1.75067980644 53 21 26
0.303289042049 0.285192559691 -0.353639216975 111 87 101
-2.41927403324 -2.00468338305 2.99495843184 126 102 115
0.550411149404 -0.38165134829 -0.542122311706 95 66 88
-1.11053670792 -0.539719416811 0.759212927822 88 45 52
0.064011406706 -1.31036204586 0.129626545027 85 72 102
0.00330278964335 0.595360064163 -0.0366786412647 88 70 86
-0.684778320333 -1.25262447265 0.944358025378 136 122 139
0.501098446239 0.953484351507 -0.640529600744 102 71 77
0.210327271766 0.327221371859 -0.241180896443 109 86 102
-2.28511825183 1.20951982709 1.90020568927 110 54 67
-0.188147027281 -0.799015332471 0.333700453051 121 103 125
-0.233811979728 -1.04267306956 0.412669152165 127 100 117
-0.955092612824 -0.899097197836 0.534585359173 37 27 26
-2.3304004017 1.38540872682 1.73104144795 124 77 93
-0.327480086399 0.0531665051244 0.385558141266 141 111 123
0.50120128252 -0.0244631681018 -0.536757133529 126 104 125
0.573334376633 1.36313913036 -0.772524607912 113 92 107
0.417350630649 1.43853666371 -0.605790885039 118 103 122
-0.615896693928 1.05144920069 0.0145126437176 103 60 67
-2.64163555888 1.18859940753 2.83571315802 61 60 78
-1.79296326426 -2.24374976135 2.30432452145 90 77 95
0.668884442486 0.2511455386 -0.766019056223 90 65 86
-0.37959067731 -0.476429559335 0.510958760966 98 65 72
-0.426465038643 -1.51258545366 0.671086468465 110 88 109
-2.33126073509 -0.223625932153 2.68260008811 121 98 116
-0.148472210687 0.619738956939 0.12507376788 118 87 103
-1.73857550659 -0.303832985503 1.40675860346 78 42 54
-0.704330262119 -1.10144701869 0.934026567714 132 108 134
-0.816839056157 1.16886515171 0.0797694961858 140 103 121
0.258776535761 0.168859709412 -0.285089643816 123 103 115
0.0845563672727 -1.04336078949 0.0442058135974 120 87 106
0.644927978618 -0.448815972946 -0.644615833736 104 80 102
-0.426794613199 -1.51299755934 0.671565877341 110 88 109
-0.498345591507 0.931582527891 0.064015032267 137 86 103
-0.506133285501 -1.37845377536 0.74642586657 124 95 117
-1.24181099252 0.897281192254 0.821837994122 118 75 82
-1.16637736285 0.369753938514 0.852060126175 62 29 38
-1.51170454105 -1.68200351352 1.91262354851 122 103 122
-0.0323682619016 -0.433491942056 0.110689474422 111 86 108
0.97779202107 0.139158010699 -0.48600283146 105 82 100
0.565623642896 -0.455647916978 -0.55283222984 118 91 110
-3.00131486998 -1.83643098728 3.58942742223 102 79 95
-2.74972954475 1.05913679413 2.98650507651 77 62 85
-0.808040328764 0.629397830238 0.473074730966 139 91 105
0.178913548094 0.15511372522 -0.181108381073 94 67 82
-2.25070245158 -1.99541319125 2.76127376766 132 109 127
0.126858407768 0.314053021981 -0.148256579841 129 105 121
0.292852301815 1.19442568864 -0.437348173871 131 113 125
-1.86473806564 -0.801978803893 1.39165683869 105 58 66
-0.865147738078 -1.35148726205 1.16026390826 127 105 126
-0.502925566036 -0.622716100838 0.670816809388 114 77 94
0.126917089942 -0.198953878168 -0.0787294462361 99 72 87
-2.49405812842 -1.63652928142 3.00047567027 127 109 133
-2.31368611029 -2.16795857673 2.85827866511 124 107 126
-0.920943969571 -1.75491077905 1.26237883309 129 105 127
-1.17781628409 -1.06702252329 0.959896389354 64 24 32
0.196669310709 -0.634209502055 -0.120983789108 114 91 111
0.657841939688 0.338753404218 -0.745439744123 99 73 86
0.405171725919 1.48678953283 -0.605391553953 96 75 92
-0.198167099165 -1.20090995591 0.382861679903 132 114 130
-2.00465263114 -1.47668608703 2.47549343066 114 97 115
-0.0234293946023 1.50859241702 -0.103645681913 84 60 82
0.546754652797 -0.83768509011 -0.479723955754 109 81 104
0.261830798644 1.55426433964 -0.443593148668 92 68 92
0.565614438652 0.0545093542813 -0.61139089227 95 71 87
-0.523281891343 0.315536717423 0.00496629706905 83 33 34
0.609880815035 -0.634142837151 -0.580435927302 104 83 102
-1.76962020345 1.22543090152 1.18207058007 126 83 103
0.277465653443 1.26179224988 -0.431552220027 130 105 124
-0.474413627208 -0.86091556316 0.665566862158 64 46 62
0.426825575279 -0.0469575198294 -0.436528821899 117 96 111
-0.198140109098 0.702253572469 0.18190329055 110 98 122
-2.10438431493 -2.26830277983 2.63091661837 129 109 134
-0.0971634212243 1.4131426148 -0.0282519099187 98 74 88
0.732489472492 -0.693877720845 -0.645221818786 103 74 92
-0.0652038206378 -0.574212957101 0.17318949072 129 102 117
0.658879122776 0.915813180214 -0.820404057122 121 99 112
-0.128682714878 -0.581696711779 0.237398825214 111 79 92
-0.0125174325011 0.647180808203 -0.0244615116373 135 105 117
0.414027688709 0.677113807125 -0.51209175546 130 106 120
0.452762981976 -0.14260860027 -0.439781420632 99 81 103
-2.43083636021 -1.89582331845 2.96818526577 121 96 115
-0.686361420435 -1.41976961927 0.974259226901 133 115 137
-0.084965291567 -0.646317090055 0.197907434244 98 70 85
0.00716990801225 -0.204629785918 0.0563805335702 101 74 91
0.142443619333 0.80377395002 -0.222814836048 138 120 136
-2.31542054639 1.44153742885 1.70161316222 119 75 90
-2.49774724096 -2.28650451874 3.06546539026 121 100 119
-1.26898229344 -1.77523862022 1.51497696116 172 161 141
