ply
format ascii 1.0
element vertex 430
property float x
property float y
property float z
property uchar red
property uchar green
property uchar blue
end_header
-0.5467871368937582 -0.33998575888642746 1.0693381762524636 157 173 222
-0.5227770804182322 -0.3802785839881621 1.0496904898352473 105 86 105
-0.5404766899158168 -0.37444035799355646 1.0610823349166443 163 179 231
-0.5379943539208623 -0.3328480440342124 1.066858177725742 158 174 223
-0.5489474778873287 -0.32904263402190004 1.0727440836092847 154 171 217
-0.5496211821949103 -0.31966128278223305 1.0751909215152777 150 167 213
-0.538788127658892 -0.3193558785245281 1.0700000262610978 153 170 216
-0.5451466055199473 -0.35880897230879827 1.0663787618666045 161 177 228
-0.5326780323200999 -0.3330496178842998 1.0640591473628482 103 89 115
-0.5306392231092084 -0.37173784699390333 1.056942003126581 165 181 232
-0.49476164828987235 -0.26154960097749586 1.0350930387038328 150 106 133
-0.3233016784819834 -0.35391665573548564 0.9518208285818635 154 171 215
-0.4269028830584713 -0.3644532074495808 0.9928463129373153 122 97 116
-0.3986988306467858 -0.29172026636651405 0.9875433858332904 120 96 112
-0.5294731631960311 -0.33830947369478465 1.0606436526752892 116 92 114
-0.5034752013730109 -0.3358789007401299 1.0430302676569558 77 40 47
-0.45746574710827714 -0.28240623185194025 1.0200674281770994 150 103 121
-0.3496606939573867 -0.2811920183832 0.9687032734057415 146 163 209
-0.3941069451532844 -0.35229834095555557 0.9735386638989884 133 107 120
-0.3926781153795641 -0.33408410147546064 0.9755824969013551 133 102 120
-0.38797923946024426 -0.31660393697654415 0.9758239112941924 133 112 129
-0.4088529283024295 -0.28040099927741363 0.996510674386245 124 100 113
-0.5368675760186536 -0.27045242339809217 1.0590312870163237 108 75 96
-0.5032697136692889 -0.2581413733509047 1.039789833822335 117 81 95
-0.5300218488279327 -0.34791904866199924 1.0598302283154006 105 87 103
-0.4602251892889785 -0.27778619140948724 1.0228085891295762 29 13 13
-0.4917911107284815 -0.2605959764574829 1.0350196071596054 166 118 140
-0.4030743363407346 -0.25289687819230255 0.9983205003550312 110 101 122
-0.42263321310138396 -0.3203951021488785 0.9977328328141265 122 99 119
-0.3971975534023061 -0.3514185515471333 0.9749097861895963 132 106 119
-0.4948941422933114 -0.26604475681252265 1.0345686168483403 136 92 109
-0.5295722718599383 -0.2690486815620305 1.0534984949339063 135 93 117
-0.39702337609449756 -0.2575596439940685 0.9937323275826264 123 100 116
-0.4795485752933544 -0.33466536477650727 1.027696011331677 124 106 84
-0.4873904485784723 -0.2732335548585288 1.029382576182817 138 91 111
-0.40430083036119885 -0.3343000233443755 0.9839470165552876 127 99 114
-0.3959278447615607 -0.3302427567483766 0.9786705689286407 101 75 88
-0.40537609861469787 -0.24455869751366136 1.0003797635759237 121 107 122
-0.5202571458732864 -0.2595400996303145 1.0478591870860818 113 76 93
-0.38484322928566883 -0.3479558513196568 0.968460235513053 116 92 116
-0.4068024983104979 -0.3523507894017271 0.9820635164105079 131 110 127
-0.4041828983174709 -0.30189783205453385 0.9889643939810177 115 87 99
-0.39801878129010837 -0.29168053295929686 0.9869981570545656 110 86 100
-0.4949588748936015 -0.2573176303554989 1.0359859616827343 128 87 101
-0.36088427634161446 -0.3311611401680717 0.9620494546528562 36 31 37
-0.4561469956950399 -0.37119014757618646 1.0062979334446966 50 26 26
-0.478868536000851 -0.3081124227906711 1.0315433295627123 59 32 37
-0.4492083744125202 -0.3485344692954396 1.006534173874433 58 24 23
-0.39080475868612896 -0.2897154213013513 0.9825825368364155 106 80 91
-0.441879168419832 -0.37244378344388596 1.0009285695970587 143 114 136
-0.45438352429968093 -0.273333637173898 1.020159198003151 92 64 78
-0.5217457313919027 -0.36102041439524674 1.0539500568221132 89 66 82
-0.4681434784435292 -0.2763114084829067 1.026467550798173 101 59 71
-0.3962099251564825 -0.25847525892599604 0.993273416485933 119 95 111
-0.5079068268170317 -0.2673836772831219 1.0401785289145584 137 92 113
-0.4056943297405467 -0.29250602242672064 0.9917631345308522 124 98 111
-0.41226320855209625 -0.3435059798332601 0.9872536081614585 117 95 118
-0.48772111875825225 -0.27483062605007014 1.0296422176325337 135 88 108
-0.3519832752826917 -0.2633019926870267 0.9740231411073822 157 174 220
-0.4423872032850167 -0.36740262572860166 1.0024549650927217 122 99 119
-0.4954596715878219 -0.25596130617281004 1.0365722320348798 127 81 94
-0.5022080876077342 -0.2800565823479125 1.035015824919155 77 38 43
-0.4886691768161172 -0.29581455638575843 1.0387668315338205 105 76 98
-0.40257046118164186 -0.3616231523038174 0.9772731219531172 113 90 110
-0.39592519295292017 -0.3508089131461798 0.9753739145427337 130 106 122
-0.44006312694521255 -0.36509754280718776 1.0010993849237824 109 81 95
-0.41813241561461645 -0.26027311408978343 1.0066766898473813 118 103 124
-0.4037439693377713 -0.25133912324088825 0.9983694867502383 119 114 136
-0.44512199681556863 -0.27516094796929674 1.0128203181025912 82 50 51
-0.46579248934072626 -0.27540858918983047 1.0254579310510918 85 51 65
-0.397089245242244 -0.2873218993405419 0.9876089032346453 113 93 105
-0.5347362275285428 -0.3600913806655608 1.06035027008394 160 174 223
-0.45025753851867195 -0.29097370072011286 1.0143428314298755 130 83 101
-0.45263417059834743 -0.25898351642885054 1.0208103573238883 125 85 109
-0.46287142288535743 -0.36918440850900286 1.0097864397287095 38 19 21
-0.32291174995554944 -0.37217125104306276 0.9485032796030805 159 176 220
-0.41990047091484656 -0.3863703490807227 0.9850658354442297 118 91 110
-0.41338078060997174 -0.25620533906828585 1.004471629589018 113 86 101
-0.39310835637694036 -0.2702924686902786 0.9881117388049334 130 106 119
-0.48102711384856095 -0.3264099137198993 1.0301926266121697 114 88 61
-0.39339224521271127 -0.2506022423655354 0.9925847604734911 112 95 113
-0.41314054784279275 -0.25453092628956686 1.0047265081303514 110 106 131
-0.38779426518587373 -0.2618359825518774 0.9863980164958556 133 112 129
-0.45435258373744664 -0.38411919318458615 1.0069073663811772 140 108 129
-0.5615479518654276 -0.38993743187578594 1.0697439383226597 158 174 225
-0.4459091294529056 -0.37284757417598685 1.0029826688209336 141 118 144
-0.403407495071081 -0.25975535182349707 0.9971629880947513 112 94 116
-0.4088882790658106 -0.36536638843618735 0.9815433301081198 119 94 115
-0.4123895591458383 -0.24797203618235106 1.0044414994766355 117 103 118
-0.4713269910654206 -0.2804347820045416 1.0258983688791963 74 32 36
-0.350675297430936 -0.28367778195326343 0.9656275936385217 140 158 204
-0.5579188038541371 -0.389508166823393 1.0676845212732309 158 170 220
-0.5301418521953202 -0.26378387764191435 1.0540669823189512 106 66 77
-0.466800968928307 -0.3468899441339579 1.016797721198888 43 18 21
-0.5118506235901255 -0.27831695074901325 1.0392473824206117 129 78 95
-0.4133626235478942 -0.37229638102608065 0.983124534847413 111 88 108
-0.40739643311223034 -0.25775020782303926 1.000297949086218 79 62 81
-0.3959962972606895 -0.3508222457116275 0.9752233079587521 130 106 122
-0.41106754577072463 -0.36173241615783897 0.9830627564431693 123 108 129
-0.41549572832914905 -0.35767537942857225 0.9869649755962713 112 87 108
-0.49018981709169324 -0.25679736891503674 1.0342205130923396 115 79 93
-0.4625584924266718 -0.3325570625538476 1.0183348119032558 51 21 21
-0.41552980553369046 -0.37977412820109907 0.9834466994227591 123 96 111
-0.5557028634871064 -0.38655450596981744 1.0640570527212845 161 177 229
-0.40610428769450413 -0.38053170184004176 0.9769199053529778 111 92 112
-0.3963671203865104 -0.3199196407368075 0.9810734294887268 125 108 124
-0.3809390392286781 -0.2713270867990071 0.9797806443961228 110 86 100
-0.40041436797298186 -0.3850917554574689 0.9726234186253074 102 86 113
-0.4589024916537574 -0.26165901423304894 1.0245664745109893 143 97 123
-0.5021697096778854 -0.2798137900693164 1.0347929343684046 77 38 43
-0.3971813874824674 -0.27449262076552844 0.9899642988698178 125 104 119
-0.41817643746597977 -0.2807943317202025 1.003038187594675 119 93 106
-0.5123552480612658 -0.27582244487759794 1.0393997173149276 133 88 108
-0.41433878720767475 -0.317362145083989 0.9927491833173774 117 94 112
-0.4717469446976971 -0.2808507948225226 1.0246902789750998 101 54 62
-0.4075095669136077 -0.3511753014344752 0.9829344081169592 120 97 115
-0.4519188330461588 -0.3462738720444525 1.0082702689225127 119 69 78
-0.44942313095613456 -0.3852966303535075 1.0036522756945008 138 109 127
-0.3979445957991715 -0.2999787184705632 0.9863199001231685 105 82 98
-0.400211377226433 -0.35077530647967986 0.9768030102519442 128 104 120
-0.4206245224341942 -0.328818759227611 0.9946646660376152 114 89 110
-0.4276244470370597 -0.3335629851867113 0.9984859309783913 132 101 116
-0.418423384785248 -0.2443886456754609 1.0076439702962077 70 70 82
-0.5086017252861769 -0.26215128986824765 1.0412863002087598 166 122 149
-0.5136152581412121 -0.26293516703639586 1.0432542061557615 168 124 151
-0.4151196136130779 -0.2530806709411223 1.0046411076154098 109 99 123
-0.43956623065963923 -0.3449729791536179 1.003963744495265 110 82 97
-0.38337488624249605 -0.28269558873399936 0.9788638225670656 102 79 89
-0.4872854731349445 -0.34707981555742523 1.0300243125425836 71 42 44
-0.42137605039880943 -0.3209053563742898 0.9967115450082539 124 100 116
-0.3885448752006053 -0.34916805800221035 0.9708532789508776 112 86 111
-0.4041432121777549 -0.27130897892140177 0.9946840633889733 126 100 113
-0.38324954805631517 -0.29834413152390127 0.9763489755659048 113 90 106
-0.4038242073563017 -0.33523629735933475 0.9835955416432157 123 96 113
-0.4884904593150899 -0.37555501955973053 1.0239107684106679 92 45 51
-0.3610091475660859 -0.2892919290094469 0.9712192648349408 109 122 156
-0.4217416485563074 -0.3255907242788487 0.9958834065248267 124 96 119
-0.465931828902572 -0.33004189729848843 1.0200752991280773 114 65 71
-0.4498270235090315 -0.2825861106107926 1.0149430529143242 140 87 107
-0.417334499682701 -0.28976434266331497 1.0002868636421391 103 79 92
-0.41952037597549974 -0.30097629879441024 0.9994483581097556 103 79 95
-0.37413618419728173 -0.23838480612018534 0.9809538975851855 87 73 86
-0.4753176609905518 -0.3322012400456393 1.0255317252592022 47 26 25
-0.3927319495509188 -0.3758820905351138 0.9692549261006069 122 97 116
-0.44233656844186536 -0.3713211460427287 1.0015555385928638 147 121 146
-0.5106346210612669 -0.267572416828076 1.0413878219690664 108 79 101
-0.46591283699193914 -0.34275601235639375 1.017160924598439 97 50 58
-0.4679276451557107 -0.2625104748557218 1.0292892863423775 148 106 130
-0.3722618229868642 -0.3409162640179235 0.9635834828124463 134 103 121
-0.3990029856889291 -0.29538687799494706 0.9872177516403335 132 106 119
-0.517754365269498 -0.2681903091022376 1.0448287593003664 97 65 88
-0.35438194570290144 -0.3624845176947743 0.9543224859608325 25 23 36
-0.3979807610023371 -0.253924716842769 0.9945378639537594 80 72 87
-0.4634242073184275 -0.29850003393567665 1.0246817595318645 133 79 93
-0.44818081206198773 -0.3718876769599373 1.0028877260996683 114 83 98
-0.46158631702304875 -0.2618693071777529 1.0271615471893552 117 74 93
-0.43572360627864354 -0.31482418356418 1.0055601289718465 110 67 76
-0.43978090779692275 -0.3566703620718952 1.0014669371824594 114 83 101
-0.38817001146867397 -0.3454990143352791 0.9702255061964661 123 100 120
-0.40120571862525795 -0.3780169755357879 0.9742916397917127 125 102 120
-0.4802004276015126 -0.29984233033710567 1.032975642613318 144 90 106
-0.471470364454994 -0.29980605659819576 1.02772806017772 147 91 104
-0.4825825280782927 -0.3802841701033718 1.020701255910875 76 34 38
-0.46780021072341 -0.2753228432403249 1.0260623409351262 86 49 66
-0.46250195259845434 -0.3764140273220278 1.0068085880748197 139 85 101
-0.4162647791936361 -0.27638930545740015 1.0021459587117132 88 75 93
-0.41887697279239805 -0.3044126901813463 0.9980078437432488 123 99 113
-0.4781055675011996 -0.31252548747458087 1.0306568757329453 181 171 169
-0.49683925799142403 -0.26639557937865954 1.0355277276033605 117 83 107
-0.4166503444675389 -0.3518390608051513 0.9885682375370062 122 99 119
-0.43313125652556955 -0.3352872606328338 1.0035462455369408 133 101 116
-0.4069667290377667 -0.36595940796474097 0.9808540161173009 95 71 93
-0.4563258406074865 -0.31158578814185534 1.018586910471369 98 52 55
-0.3986382364440124 -0.2813015824095353 0.9885972779695253 110 84 95
-0.42392299131815264 -0.3891899511779099 0.9872286825031948 135 112 128
-0.4139990108872433 -0.35752075911099895 0.9858726326482197 115 88 105
-0.5121529475566483 -0.27707740225234595 1.0396598774615573 132 83 102
-0.394827708017165 -0.3586071655197913 0.9732015390462754 100 79 96
-0.42556220534020917 -0.3096064633072648 1.001688543220886 112 84 99
-0.4006301769127117 -0.3063422893979997 0.9860708649513392 115 91 107
-0.46030964805758273 -0.29315295765874233 1.0201984519066798 135 92 111
-0.4156857018985211 -0.26328758431815347 1.00488070200156 105 89 115
-0.41042435039937253 -0.29395361541740544 0.9943500223500037 114 91 107
-0.4806432543675907 -0.3010036237864662 1.0332761372347161 130 76 92
-0.46396345188404986 -0.3600538720101087 1.0127240298044178 76 35 41
-0.44184892729618086 -0.26804043425060403 1.0131291778028628 117 69 83
-0.5135793813269436 -0.3255317403681623 1.0502708945821957 116 73 80
-0.4849252745722253 -0.3154179303621226 1.0334018454062281 136 126 116
-0.4418611615630161 -0.2701862015498516 1.0115579254690894 115 67 79
-0.4878990422842205 -0.27566937591345525 1.029731211792042 131 84 102
-0.4100383176276169 -0.29625309947642653 0.9937668599030695 115 87 99
-0.48072574555289954 -0.32662664024247473 1.0296561712672294 104 76 52
-0.4843918157218317 -0.2788893180690077 1.0270458475372355 109 68 76
-0.42666639085301095 -0.2668898779409427 1.0107142488026741 58 40 56
-0.410658031296744 -0.383219963079435 0.9793430016344755 127 100 117
-0.41830480027813255 -0.2714437484373585 1.004198610642233 93 70 86
-0.5416510001299674 -0.26616767993930135 1.0588530027443819 112 70 84
-0.42840252408342255 -0.3919308553468619 0.9899059651707568 108 80 102
-0.5009473109764835 -0.30131937714701756 1.0461557189126676 128 83 104
-0.3892862597321177 -0.34039261162655104 0.9727287992131072 127 99 121
-0.5000879501935348 -0.34836133552569953 1.0378787212812661 113 86 103
-0.4518727455829292 -0.34532146761776783 1.008778265146146 124 70 83
-0.5240158241683881 -0.28071682295072226 1.0479369516910064 109 65 80
-0.5006222667521194 -0.2801653180021411 1.0331674673842668 106 59 67
-0.4100963589446258 -0.3759372133871217 0.9804455249580332 126 101 120
-0.5160699401012954 -0.35008850911076206 1.0507054046745863 113 95 117
-0.3487661159330193 -0.2853193887317295 0.9653888259885051 158 174 223
-0.38671444116684633 -0.27819729431685253 0.9822842550768486 111 85 96
-0.47036354618499815 -0.33138411624826897 1.022898666581525 68 33 40
-0.40108876044998654 -0.32344248523724833 0.982725837976669 118 95 111
-0.39630297470716896 -0.3631260140510086 0.9735370987969236 108 95 115
-0.42584044550397265 -0.2692514357900312 1.0096410025732117 75 57 73
-0.3494711384188295 -0.23574615053698025 0.9767611334946801 110 106 129
-0.48021667617921604 -0.26238615739178744 1.031792346586449 141 99 123
-0.44836994860092266 -0.3091561481520964 1.0139001050244265 126 74 86
-0.4601226238304878 -0.3568241645707539 1.0117220884043656 28 14 14
-0.4844482442338193 -0.3329978394017449 1.0298942998058507 62 33 37
-0.40968250440560877 -0.2599772506177884 1.0010649381097945 108 85 101
-0.4512700191618869 -0.33598655142563927 1.0097300128029147 56 26 28
-0.4418871514556017 -0.27008677012338567 1.0124747369657356 116 68 82
-0.4551563573154472 -0.319923387556567 1.0165077238097084 124 72 84
-0.4283988609644319 -0.25262361842712483 1.013405712419755 108 90 106
-0.46180117616684957 -0.29967165955687985 1.0247812524113662 119 63 76
-0.4295591163768905 -0.2754472965545929 1.00875125063372 92 52 60
-0.48733821850381176 -0.2551055166559694 1.0344176809239845 114 76 91
-0.4836808922821766 -0.25485947263605707 1.0328228717197103 132 89 108
-0.4826942494923354 -0.3522090138044686 1.0264626968162016 106 59 69
-0.48584451122625255 -0.32059316354693396 1.0326328662802065 77 38 41
-0.43651287448954956 -0.3102453300246522 1.005016372294577 122 72 84
-0.5003797625683066 -0.3026961848799097 1.046140288510526 135 78 95
-0.4084929849974764 -0.3561614842087781 0.982796916833586 108 81 100
-0.461694780757348 -0.2865526252461382 1.021482042703595 120 78 98
-0.4674346702988144 -0.3652092308337446 1.0131480519611273 109 69 80
-0.3979633030638907 -0.24149866789689595 0.9962071369420298 116 99 115
-0.3541554674105368 -0.2496875723053391 0.9768252344464976 152 171 214
-0.4026538709881749 -0.29101946112075366 0.9900605102179535 138 114 128
-0.4596754632500063 -0.3274299707444186 1.0177483642668348 116 66 78
-0.42228589535834066 -0.3119935012244134 0.9998042005564775 112 86 97
-0.481465298772726 -0.31477000275351097 1.0323497742123091 129 112 105
-0.4646140891687686 -0.3946876952687975 1.0106870427060524 57 83 98
-0.4105664577888601 -0.2834977425814608 0.9965451232042576 67 54 74
-0.4525481095198263 -0.26064994206697717 1.0215049420206057 128 80 102
-0.40508700035890366 -0.38127318735962296 0.9760547402512977 106 87 106
-0.3881357743448412 -0.23572976759820455 0.9905380464335036 98 88 99
-0.4173969736204416 -0.35047684813237645 0.9894071717541859 123 95 117
-0.44368495647714745 -0.38076655765725087 1.0008886453943864 118 101 120
-0.4573135381727298 -0.25706255089415875 1.0248843515341972 110 75 82
-0.38116489931655706 -0.27162783765560666 0.9799202112652666 104 81 97
-0.4377046222299588 -0.3141792086094118 1.0044152739939916 97 54 64
-0.44251164406898863 -0.2977148642523041 1.0111145642890096 143 92 109
-0.40220014936134824 -0.2714233205259652 0.994232743477319 126 104 117
-0.4588878900071362 -0.3823587738714895 1.008044177812136 138 100 121
-0.5466865136190769 -0.3120434361435268 1.0762834611270147 41 47 71
-0.43463045374382664 -0.3611930564161922 0.9980981855041355 125 102 120
-0.41926216983460357 -0.2719876870385483 1.0045488864446852 99 76 92
-0.4786862393497193 -0.2673981222348042 1.0294603639542554 108 80 102
-0.3986145430379826 -0.36041537960792946 0.9749384349670761 117 99 121
-0.39164927475565575 -0.27438938033765137 0.9870191028207463 117 96 113
-0.5227776121563205 -0.2651540918601579 1.0503484597898498 117 82 104
-0.4074980150436648 -0.27901310472910434 0.9950189812877427 131 107 120
-0.4073840330268183 -0.2585650929656297 0.999780834559547 106 84 97
-0.44086206569213865 -0.31157676520568917 1.0072242807034162 75 36 37
-0.4813978008417501 -0.2546316059380754 1.0324505761376768 134 92 112
-0.45625033264866216 -0.2613262919972603 1.0225518946708103 127 82 105
-0.4525060885656724 -0.3900373846740416 1.0045802023662456 130 111 130
-0.46604528234049136 -0.3382092076555717 1.018242953043046 122 66 77
-0.3834771194663541 -0.33872661084717737 0.9691863044116589 129 101 123
-0.45248031515039705 -0.38349067744341425 1.0062162163144521 106 79 98
-0.4212505212794153 -0.2689589366383551 1.0067262806568513 99 81 97
-0.5524298150774646 -0.37464798253557746 1.0625366516782553 164 180 232
-0.49456033003767785 -0.36369477562014757 1.0318359879122296 122 98 114
-0.5444911562012552 -0.2909942224966387 1.0609574276147233 91 56 60
-0.49310545330492783 -0.2765246393463702 1.0317918397311947 131 82 103
-0.5683508372495757 -0.28728713811618506 1.0889806297442786 83 102 96
-0.41804918004589886 -0.26735881952987894 1.0060026537550244 89 74 95
-0.47996095023349283 -0.29394393500189353 1.0333915995631744 100 76 90
-0.4559064564092124 -0.3548022662496688 1.0087174296050796 134 81 97
-0.4643605012877077 -0.36173338152551465 1.012357387084127 90 48 58
-0.44237854370470137 -0.27998995020240874 1.0098558535773663 133 79 93
-0.4165798295626255 -0.31678073442644245 0.9944027777486236 115 92 108
-0.5112953436395151 -0.38171069152772025 1.0366600524449134 120 99 116
-0.448046853431609 -0.3135460175927051 1.0128749577304106 115 67 79
-0.4893546710594815 -0.2922731566538701 1.0391668644233094 138 96 116
-0.4731191319791079 -0.29219942076871885 1.0288387941192303 128 80 96
-0.3488746584432748 -0.3320780672786537 0.9560137096836743 157 172 215
-0.5055174417074428 -0.31707835736684065 1.0487414000201596 93 50 59
-0.45399792016525087 -0.3191148027632755 1.016035873799997 126 74 86
-0.47552963635290435 -0.37666832135271944 1.0163658003477873 68 41 48
-0.3830959960570336 -0.29736645367286646 0.9763049565389652 117 93 107
-0.4387817315575552 -0.36929961426672253 0.9997297533528903 114 89 108
-0.4360298307257292 -0.30934493017562814 1.0054453802970986 120 70 82
-0.47103765227166994 -0.29749843645230173 1.0273062318211001 147 90 107
-0.43711325039620197 -0.2889989132387187 1.0078614222990143 82 57 61
-0.5126185027003077 -0.2702935623291987 1.041251896577859 139 92 112
-0.469517757043656 -0.36232406563721137 1.014945308568728 82 40 50
-0.5021946416321856 -0.2950476934812312 1.0478156922630528 131 88 108
-0.3503605961002767 -0.23571923501696015 0.9772455384146717 102 94 118
-0.4106945553230294 -0.30701166071774955 0.9931816686909216 121 91 103
-0.4240571825940538 -0.3334715931711839 0.9966426051237656 110 82 104
-0.4846133781624383 -0.3565262417274925 1.0264073841234493 35 16 18
-0.34579369301466695 -0.32828074189147977 0.95508847845008 165 179 226
-0.42062851810836926 -0.38219861271543537 0.9859771511091023 130 105 126
-0.4671500598481594 -0.2910622671150649 1.0253587215963125 94 68 81
-0.4642347825299706 -0.3497520134487053 1.015023242242521 111 57 70
-0.38489027211505544 -0.30828862368406357 0.9756024726498366 105 86 105
-0.38324008529073506 -0.29754282582707126 0.9767864330883624 112 88 102
-0.4203833837503724 -0.2641422250500101 1.0074227127332405 105 81 97
-0.4376252996929265 -0.24830722579693495 1.0171501703748003 76 75 83
-0.4485935178354801 -0.3065577009615491 1.0149115569746507 108 67 75
-0.4708809055755639 -0.2985633695888918 1.027242788659857 152 95 112
-0.40208858320143714 -0.3736710076949186 0.9754676342890385 123 96 113
-0.47743556978605817 -0.32675489489849585 1.0282592050596346 175 159 136
-0.38829018119558584 -0.29362105988861575 0.9807991752018487 129 99 109
-0.3374803888724015 -0.2520985482805648 0.9756027611490731 156 175 218
-0.3962718524584603 -0.3642136183464053 0.9735674991178072 113 96 115
-0.5102630845289404 -0.33192176557286884 1.0477344490243816 145 108 125
-0.3664933013244048 -0.24301533586800755 0.980629131352244 132 123 142
-0.4566286723379446 -0.30792944951893253 1.0191736356935845 119 66 76
-0.47934326423072277 -0.3473753152695805 1.0252906662096906 101 67 83
-0.46208038813546265 -0.32093939357966683 1.0204886500801549 122 69 79
-0.44170539049106955 -0.35939932330669916 1.0036215934756603 99 68 86
-0.45024118611766584 -0.2707411394643549 1.0179313197181477 106 72 89
-0.47779308071957227 -0.3547426531523124 1.0213889560562115 74 39 43
-0.5073358105056657 -0.35186272844072464 1.0423155113980906 118 91 106
-0.5010990266570402 -0.2710909599293276 1.036383566203335 126 77 96
-0.45746788482896084 -0.39316297036223097 1.0075574618125787 122 99 125
-0.4298837573979623 -0.2533825098355054 1.0147912454875478 114 97 116
-0.4053541287300051 -0.2870399452380883 0.9917371582075607 123 99 113
-0.5003833792206347 -0.2750641724964727 1.0350227014328048 138 93 114
-0.49952968908397205 -0.3207626527516151 1.044115829560753 126 72 85
-0.5217779530536732 -0.31263687662839473 1.061240298430897 89 81 96
-0.5051810710462408 -0.3465768724551684 1.0430346902146665 83 70 90
-0.4101424539686567 -0.3623452956694609 0.9823128721024672 77 59 73
-0.46262830543082784 -0.30871256621826565 1.0229628057609612 106 64 78
-0.4437861709985673 -0.384465789851756 1.000479277403494 118 91 108
-0.5004358324310334 -0.3218065406814927 1.04407695662914 110 68 82
-0.40384475106453505 -0.260558538379316 0.9976205288143369 95 77 101
-0.46407028249174204 -0.3724802024965696 1.0080512290680996 93 54 59
-0.4245875394876586 -0.2723661160211424 1.0083242821661722 95 71 87
-0.43460881285465813 -0.29860738381116614 1.007306369953963 127 75 87
-0.4820065139833088 -0.3326050983196622 1.0288794439290392 73 41 46
-0.3952060350093891 -0.2889728373982297 0.985833093867811 100 79 88
-0.43572472165538495 -0.383198703705051 0.9954273523125987 132 107 126
-0.4558663066359476 -0.31497767029243506 1.0167037050050802 130 73 88
-0.5478087692647141 -0.27496367265509875 1.0660750510343595 148 106 128
-0.37562451978929345 -0.33953868022082306 0.9641127693812007 130 101 119
-0.3618886087419937 -0.3325543432647309 0.9622584317281002 38 31 38
-0.36474769859364803 -0.3472434919133248 0.9590046297493167 127 105 126
-0.48969996725305237 -0.2676430754632874 1.0321527727035744 140 95 115
-0.4426776545540017 -0.3344123948932143 1.0041483388460666 148 101 119
-0.49380743892797974 -0.2674646035657257 1.0335821071932245 109 74 98
-0.4131172062829721 -0.25656324675900005 1.004826495237574 113 86 101
-0.36708476550128627 -0.24850140586629116 0.9804563377616892 34 28 32
-0.46759305624140907 -0.3226679040898853 1.0222091096432306 119 72 88
-0.5098363513350325 -0.31985404942969936 1.0502813037748082 65 31 32
-0.5053390976163794 -0.2717378110234461 1.038325293323226 132 87 108
-0.4649082317725096 -0.2828997484573614 1.0226890795308927 156 107 126
-0.39273232557469573 -0.24762826515386113 0.991372464246096 105 102 129
-0.48940168166268944 -0.3535489060308166 1.0295841543758164 101 59 71
-0.40644928758066823 -0.29871844667458575 0.9913103519125326 114 84 92
-0.379349453625386 -0.33697042759626883 0.9669397087294808 108 81 98
-0.48573413623803907 -0.3422543868011532 1.0295516970214555 116 64 76
-0.4094407922474756 -0.2755311322805833 0.9982206044760646 113 87 98
-0.4075110032191547 -0.28648040901625743 0.9945585723977053 66 75 144
-0.3595099349628617 -0.2470183154212904 0.9780459578560763 61 67 89
-0.41986637881900085 -0.26136410898308343 1.0065936423681108 93 84 101
-0.4303716310505473 -0.28432789084055893 1.0085621881477653 116 70 81
-0.47549377522817154 -0.38352833623760224 1.0169293797219061 76 31 34
-0.49195407821847603 -0.27440689227916626 0.9966812271372463 124 73 90
-0.3780656595328282 -0.25068525035570505 0.9821408285966239 98 77 86
-0.3665465481634595 -0.24268812310992383 0.9801781847128929 136 124 144
-0.5171835533843077 -0.347500440486747 1.0517277182454978 100 83 101
-0.3786971535111638 -0.25112627314382036 0.9833656383293342 102 80 92
-0.4488829169231676 -0.25266918594115756 1.0201321702911454 123 78 98
-0.47052751715124674 -0.3301906530340015 1.0221051903970266 98 67 82
-0.4186322049238257 -0.3059767888139392 0.9982890119092014 96 78 94
-0.4377763967744571 -0.32625799101683867 1.0023581243817916 122 65 71
-0.36415618899926516 -0.33838358853912526 0.9611021746534698 99 78 97
-0.49011203177702195 -0.3398893183716036 1.0334605873019174 98 53 58
-0.4595523480401582 -0.32560865204573053 1.0186151766843807 124 78 89
-0.45312057466220784 -0.27069083275521943 1.019583024460845 112 65 75
-0.4888435202052455 -0.35793851970481866 1.028100464941998 109 66 83
-0.4575228252558754 -0.3241874427322289 1.0172990245273945 127 77 89
-0.5108410977017386 -0.3234680075746509 1.0505068076002975 114 71 78
-0.4315726468165178 -0.2619229702674146 1.0145963894397334 109 63 73
-0.46512416097895354 -0.383179671467765 1.009310877711836 98 43 48
-0.5187442822874604 -0.33964796846204875 1.0559614243831457 132 108 132
-0.4220239785540462 -0.29078473309368635 1.0023024633227775 112 80 91
-0.4372501039420468 -0.3219712391074346 1.0018370110383659 131 77 90
-0.381068516031606 -0.24399919627058994 0.9850768686217877 115 106 123
-0.44614586747940554 -0.34072722977409675 1.0075666252208153 122 70 83
-0.3716544275018736 -0.28227794622669 0.9734979585186828 136 121 142
-0.4718677401131155 -0.3729986131026484 1.01347497355388 72 32 40
-0.45801487034661026 -0.36489513308314137 1.0089627584610041 82 46 60
-0.3582998296604479 -0.24730095192395524 0.977831338103091 50 57 83
-0.4739172569623003 -0.377846409336975 1.0162020072017235 66 31 38
-0.5213820181896699 -0.3491137624260758 1.0541199655180449 114 94 119
-0.37318263206866964 -0.2973996273526694 0.970117432263237 121 98 118
-0.4672152640235088 -0.35791093802221896 1.0124616793807866 92 51 65
-0.3681528163886711 -0.2754091231447386 0.9748347485994067 80 66 79
-0.41900519016116333 -0.2668450700890369 1.0059588964293225 93 73 98
-0.34800275558413213 -0.23789883822351657 0.9783589203269415 104 102 124
-0.4822533779317074 -0.31926188921474863 1.0318792095881981 83 54 40
-0.5254676091600523 -0.33949736179714135 1.058721700872903 124 102 123
-0.5030862397730408 -0.316505988572267 1.0470399494031022 103 70 89
-0.47060214094135555 -0.34368647001260877 1.0193639101997356 68 34 35
-0.48418445289456186 -0.38964053860765613 1.0232797354475827 116 95 114
-0.4683812605249079 -0.31867252737647966 1.0234847641535159 106 69 87
-0.4019181516663391 -0.30799313981138354 0.9865501171598658 106 83 101
-0.4523373698894771 -0.34271212850625266 1.0083857998210906 128 74 88
-0.37607147450933676 -0.267106004288461 0.9773147962105153 95 72 88
-0.49179200204334333 -0.3495233188200736 1.0310989307150351 124 72 85
-0.4751113323067994 -0.3458643162597288 1.0216285050810179 113 72 88
-0.43531641217459105 -0.28373591441782975 1.007608129142522 114 80 104
-0.474522222062503 -0.2983466309055823 1.028475652090712 144 90 106
-0.4466389143734025 -0.30929476043804593 1.0129974020395278 103 66 84
-0.4752810393215673 -0.2529716342504097 1.0318775038484609 84 67 77
-0.37857593739113604 -0.24245908846154332 0.9833849606339062 123 112 129
-0.33386615142084053 -0.23587255203147772 0.9770231528544272 54 62 65
-0.472780127358844 -0.32004843475585293 1.0276283165380462 103 64 82
-0.4460861476337085 -0.30088473544189476 1.0133379215630418 102 58 71
-0.4267174074132843 -0.28450622173898144 1.0073068749421354 97 78 98
-0.47945929974198437 -0.3177607319390714 1.0314003568296959 146 130 104
-0.4710486133980507 -0.39171821025449577 1.0164250760927624 124 100 122
-0.4692280608858452 -0.31021637794887175 1.0256568044117529 111 61 73
-0.4602354364726794 -0.2531922362318113 1.0219567305182753 82 57 61
-0.35209299023833973 -0.24434302314212517 0.9772685421556253 151 143 166
-0.43538098960783533 -0.336498239195821 1.0032817316348863 127 94 111
-0.5425070659708403 -0.3029599507639458 1.0750928112672202 141 158 202
-0.44066940284363043 -0.2893392720866481 1.0085174134231043 123 76 92
